ply
format ascii 1.0
element vertex 1621
property float32 x
property float32 y
property float32 z
end_header
-0.0618082 0.409251 0.035928
-0.0582647 0.417658 0.0464428
-0.0518626 0.403129 0.0406327
-0.0502371 0.403875 0.0422166
-0.240629 0.0771729 -0.00602226
-0.241187 0.0770655 -0.00619055
-0.221938 -0.226243 -0.0897621
-0.22026 -0.225599 -0.0840712
-0.219876 -0.225496 -0.0826601
-0.224191 -0.229758 -0.0927293
-0.19316 -0.295148 -0.192885
-0.191229 -0.297887 -0.186986
-0.189856 -0.298915 -0.186282
-0.191849 -0.295724 -0.194368
-0.184711 -0.296544 -0.172327
-0.183773 -0.297735 -0.168298
-0.183842 -0.300363 -0.160057
-0.18184 -0.302014 -0.14833
-0.204571 0.33633 -0.113752
-0.205565 0.335829 -0.11539
-0.197062 0.362516 -0.0798878
-0.132681 -0.35177 -0.0372897
-0.133539 -0.355272 -0.0361259
-0.133312 -0.362012 -0.0289682
-0.133301 -0.362733 -0.0281518
-0.0642621 0.354467 -0.105451
-0.220481 -0.2347 0.0308901
-0.220379 -0.234058 0.0296503
0.235196 -0.422255 0.0809562
0.258547 -0.426969 0.0898157
-0.201673 0.367037 -0.0601349
-0.227281 -0.0836304 -0.0639989
-0.227706 -0.0835028 -0.0650459
-0.228268 -0.0810684 -0.0737312
-0.228581 -0.0816837 -0.0722699
0.039633 -0.413444 0.0685131
0.0401992 -0.413094 0.0675948
0.27209 0.423508 0.00863719
0.268324 0.421662 0.00895544
0.278167 0.430707 0.0035913
0.279844 0.430805 0.0037775
0.281478 0.430899 0.00399291
-0.218566 -0.217097 -0.0792673
-0.235887 0.210736 -0.00201614
0.0159659 -0.561289 0.418663
0.0146382 -0.560665 0.417338
0.00659421 -0.555973 0.407189
0.00564002 -0.55523 0.405674
0.00379776 -0.55365 0.402683
0.00289206 -0.552804 0.401221
-0.0100392 -0.545954 0.397646
-0.0111943 -0.545871 0.397291
-0.0122961 -0.545728 0.396897
0.263736 -0.404926 0.0170746
0.262552 -0.40518 0.0175596
0.196797 -0.422406 0.0608422
0.25033 -0.409042 0.0246631
0.251448 -0.408601 0.0238023
-0.176762 0.408409 -0.00404784
-0.175876 0.408158 -0.00483222
-0.17846 0.408869 -0.00249759
0.400928 0.0522595 0.073109
-0.0799517 0.412245 -0.00182276
-0.0815893 0.411732 -0.00277296
-0.0832345 0.411219 -0.00372277
-0.0848826 0.410706 -0.00467224
-0.086529 0.410191 -0.00562008
-0.0881707 0.409671 -0.00656504
-0.092206 0.410542 -0.0148045
-0.111464 0.395072 -0.0454351
-0.102235 0.402074 -0.0324435
-0.0766316 0.409777 -0.00411184
-0.0755913 0.424872 0.00902421
-0.219636 0.0412368 -0.057637
-0.219567 0.0429404 -0.0582138
-0.219471 0.0446398 -0.0587994
-0.217498 0.0373883 -0.0507901
-0.22852 -0.272102 -0.00518723
0.388007 -0.00119644 0.0627109
-0.231324 0.19286 -0.0302106
-0.14987 -0.254293 -0.312332
-0.149066 -0.254049 -0.313888
-0.148301 -0.253757 -0.315415
-0.147574 -0.253417 -0.316912
-0.145051 -0.251611 -0.322625
-0.144498 -0.251076 -0.324
-0.192662 0.375888 -0.0328161
-0.191614 0.377029 -0.030688
0.146242 0.333711 -0.140744
0.148394 0.334226 -0.128788
-0.186939 0.341895 -0.0951458
-0.187471 0.342796 -0.0952795
0.0739368 -0.398581 0.0602965
0.076314 -0.399025 0.0610433
-0.0578867 -0.0438158 0.0663169
-0.0566303 -0.043824 0.0661488
-0.0147356 -0.0442618 0.0829081
-0.01303 -0.044253 0.0831412
0.385368 0.159547 0.0633281
0.390289 0.160338 0.067642
-0.107241 -0.233793 -0.352618
-0.113205 -0.233256 -0.353135
-0.108754 -0.242689 -0.336016
0.374307 0.390895 0.0438529
0.130835 0.331616 -0.159731
0.118539 0.323811 -0.178997
0.129121 0.332566 -0.16551
-0.2282 0.10675 -0.00683105
-0.229751 0.106326 -0.00430682
-0.155329 0.336037 -0.151049
-0.169196 0.335456 -0.153089
-0.22131 0.145506 -0.0169901
-0.22197 0.145416 -0.0175949
-0.197211 0.315513 0.0736631
0.361043 -0.286202 0.0517623
0.345995 -0.283809 0.0455394
0.344501 -0.283694 0.044968
0.3622 -0.286502 0.0521716
0.350938 -0.365624 0.03979
0.349753 -0.365807 0.0397672
-0.196686 -0.29731 -0.0863883
-0.246013 0.0712226 0.00405344
-0.245769 0.0701095 0.00467154
-0.179168 0.358449 -0.0810863
-0.173918 0.360881 -0.0727001
-0.172974 0.357865 -0.0717615
-0.171695 0.374464 -0.0683335
0.409162 0.0158206 0.0815696
-0.0769398 -0.398141 0.14116
-0.0755765 -0.398779 0.142835
0.397328 -0.162825 0.0657077
-0.243542 0.231602 -0.0142963
-0.207996 0.154082 -0.0869507
0.361256 0.131075 0.0504363
0.361245 0.132879 0.0503622
0.361237 0.1347 0.0502884
-0.211456 0.359467 -0.0258601
-0.210585 0.360359 -0.0248838
-0.220277 0.223989 -0.0293388
-0.21967 0.223974 -0.0282595
0.385606 -0.207924 0.0606396
0.385813 -0.206467 0.0606182
-0.167208 0.384668 -0.077437
-0.166053 0.381324 -0.0836078
-0.166172 0.382027 -0.082404
-0.211239 0.294782 -0.0920347
-0.233588 0.0759456 0.0377974
-0.233236 0.0764187 0.0393593
-0.230668 0.0698251 0.02958
-0.217983 0.252835 -0.0854037
-0.218542 0.252873 -0.0858825
-0.207024 0.267677 -0.0623556
-0.0478317 0.353041 -0.101023
-0.0483725 0.352355 -0.102069
-0.215751 0.241969 -0.0744877
-0.227485 -0.162356 -0.0759693
-0.226526 -0.162518 -0.0730123
-0.22532 -0.162496 -0.0662172
-0.246162 0.0550698 -0.00285794
-0.245963 0.0547916 -0.00437642
-0.244932 -0.00675081 0.00246619
-0.10587 0.323701 -0.180244
-0.106702 0.323538 -0.179384
-0.110013 0.322988 -0.175997
-0.110865 0.322916 -0.175175
-0.116419 0.322843 -0.173825
-0.118218 0.322268 -0.17447
-0.106469 0.323246 -0.176978
-0.104668 0.323793 -0.175063
-0.103764 0.324007 -0.174075
-0.10194 0.324306 -0.172024
-0.101015 0.324395 -0.170963
-0.234446 -0.0701541 0.0186874
-0.232256 -0.0641239 -0.00106098
-0.232273 -0.062959 -0.00176076
-0.232408 -0.0617854 -0.0024598
-0.249535 -0.0450538 0.0076067
-0.249499 -0.046058 0.00586216
-0.232422 0.269344 -0.00968024
0.184017 0.418652 0.0232128
0.185062 0.418368 0.0247658
-0.141971 -0.415073 0.159744
-0.141286 -0.415526 0.160971
0.0982127 -0.437022 0.111007
0.0976548 -0.438151 0.112263
0.252916 0.389627 -0.00484635
0.251797 0.388157 -0.00501516
-0.147295 0.392535 -0.0425443
-0.14704 0.391861 -0.0439353
-0.148648 0.395996 -0.0355716
-0.148935 0.396694 -0.0341678
-0.149222 0.397388 -0.0327608
0.021668 -0.360041 -0.0387568
0.0216541 -0.357809 -0.0387978
0.411447 0.278095 0.0978393
0.410054 0.27793 0.0969233
-0.0531507 0.308164 0.0407614
-0.0545074 0.308116 0.0408025
0.057927 0.298221 0.00482449
0.0586103 0.297499 0.00259527
-0.198035 -0.3355 -0.120229
-0.198629 -0.334377 -0.120427
0.128368 0.354735 -0.13293
-0.246377 -0.0364204 0.0159532
-0.228589 -0.272516 -0.0135588
-0.228683 -0.272659 -0.0155818
-0.228875 -0.272786 -0.0175294
-0.229172 -0.272887 -0.0193963
-0.230554 -0.272995 -0.024602
-0.231105 -0.272973 -0.0262542
-0.231676 -0.272929 -0.027885
-0.232256 -0.272872 -0.0295042
-0.213805 -0.314064 -0.0818693
-0.213423 -0.329051 -0.0729574
-0.195014 0.384779 -0.0138376
0.391668 0.21838 0.0604974
0.392094 0.218254 0.0618594
0.392432 0.218039 0.0633114
-0.189425 -0.299146 -0.168135
-0.184177 -0.301089 -0.158739
-0.186262 -0.306094 -0.151313
-0.18604 -0.305211 -0.152483
-0.186094 -0.299659 -0.165534
-0.180698 -0.284983 -0.212997
-0.180559 -0.286413 -0.2167
-0.180859 -0.298733 -0.199207
-0.240547 -0.183618 0.0230568
-0.241045 -0.184412 0.0220228
-0.241887 -0.189431 0.0236462
0.15613 0.380415 -0.060218
0.162198 0.384563 -0.0528191
0.156461 0.38173 -0.0566964
-0.109629 -0.241526 -0.336994
-0.222572 -0.132936 -0.0255176
-0.0609346 0.348142 -0.132108
-0.224308 -0.112587 0.00516269
-0.224092 -0.112919 0.00684522
-0.222505 -0.106952 -0.00752884
-0.222281 -0.105917 -0.0071413
-0.234956 0.328277 -0.011548
-0.234663 0.32732 -0.0127036
-0.1912 0.380309 -0.0146163
-0.190891 0.397994 0.0117688
-0.0555226 0.350502 -0.119259
-0.243215 -0.142513 0.0046619
-0.24249 -0.141383 0.00538955
-0.0681699 -0.416143 0.0511335
-0.0674229 -0.415514 0.0520984
-0.0654716 -0.413406 0.0552136
-0.0649496 -0.412634 0.0563312
-0.0638479 -0.410248 0.0598957
-0.0636477 -0.409502 0.0611299
-0.0637005 -0.408953 0.0623799
-0.221936 -0.0374948 -0.0701944
-0.221773 -0.038285 -0.0717779
-0.217538 -0.35128 -0.0757408
-0.124029 0.320574 -0.176436
-0.116766 0.317238 -0.180074
-0.207176 0.104609 -0.048592
-0.227599 0.184375 -0.0205647
-0.198467 0.333311 -0.101614
-0.101799 -0.359241 -0.0423867
-0.098971 -0.352076 -0.0524893
-0.0741353 0.339051 -0.142297
0.109111 -0.403718 0.053116
-0.222524 -0.0536002 -0.0861443
-0.223046 -0.0524983 -0.0866352
-0.219158 -0.0577834 -0.094768
-0.221406 0.249852 0.0077389
-0.222176 0.250812 0.00400251
-0.225551 0.248907 -0.00576757
0.313555 0.434362 0.0152699
0.315264 0.434791 0.0162795
0.313872 0.429351 0.0310602
0.314601 0.429526 0.0324952
-0.236634 0.2338 -0.0395532
-0.230399 0.091383 0.00694249
-0.229275 0.0907182 0.00711176
-0.227085 0.089366 0.0074694
-0.226003 0.0886882 0.00765133
-0.16076 0.294568 -0.226824
-0.120641 0.355064 -0.0905637
-0.243607 -0.0908826 -0.00993043
-0.244162 -0.0896367 -0.00977746
-0.0788278 0.442564 0.0565031
-0.0802108 0.442284 0.0560507
-0.251744 -0.306706 0.0198334
-0.252099 -0.301357 0.0176182
-0.251247 -0.308247 0.016543
0.0754978 -0.415309 0.0917119
0.0751611 -0.414371 0.0901427
0.0747246 -0.412589 0.0867802
0.0759341 -0.416285 0.0931943
0.0749089 -0.413466 0.0884956
-0.111708 0.30237 -0.21083
-0.110487 0.301591 -0.205975
-0.133183 -0.236558 -0.354509
-0.133571 -0.236731 -0.354884
-0.221497 -0.0974858 -0.0532353
-0.248266 -0.15822 0.0181727
-0.247684 -0.155228 0.0110636
-0.247878 -0.152021 0.00469887
-0.246371 -0.14763 0.00179791
-0.179857 0.39321 0.0240869
-0.181702 0.391078 0.0212871
-0.224115 0.220653 -0.0193693
0.317574 -0.363902 0.0372983
0.317444 -0.364512 0.0386933
-0.0732096 0.330561 -0.147318
-0.0739623 0.332125 -0.146032
-0.212636 -0.0232472 -0.0493248
-0.211646 -0.0223147 -0.0476928
-0.210658 -0.0213849 -0.0460594
-0.211931 -0.0265592 -0.0759065
-0.22082 -0.0329279 -0.0636785
0.285576 0.39369 0.0170877
0.278744 0.387162 -0.00309527
0.278643 0.38874 -0.0034783
0.278529 0.390331 -0.00388064
0.277034 0.401659 -0.00693861
0.399203 0.0512672 0.0771233
-0.215798 -0.357256 -0.0544314
-0.201622 -0.0390965 -0.0407069
-0.222266 -0.342506 -0.0771257
-0.184973 0.0647418 0.0613943
-0.183928 0.0646807 0.0606685
0.234437 -0.420615 0.0804692
0.234284 -0.416766 0.0736933
0.385245 -0.34573 0.0424916
0.386002 -0.345088 0.0415215
0.386669 -0.344473 0.0405736
0.387892 -0.343273 0.0387101
0.413148 0.411651 0.0701453
0.407475 0.415077 0.0699372
0.406759 0.415498 0.0699227
-0.217571 -0.00824868 -0.0762089
-0.21783 -0.00805013 -0.0772569
-0.214657 -0.0251666 -0.0525467
-0.168777 0.36316 -0.0619806
-0.169592 0.362992 -0.063425
0.0967519 -0.42397 0.098839
0.0942579 -0.420375 0.0943624
-0.208133 0.318298 -0.02303
-0.18998 0.326293 0.0042781
-0.188371 0.326017 0.00386003
-0.183287 0.326175 0.00175942
-0.181625 0.326143 0.00113353
-0.223672 0.0132014 -0.0191362
-0.224827 0.0112597 -0.0310002
-0.226332 0.0103647 -0.0319602
0.286204 0.412872 0.0345076
0.286476 0.414056 0.0406553
0.286642 0.41523 0.0421028
0.243612 0.421826 0.00205802
0.243415 0.422098 0.00106799
0.242973 0.422699 -0.0009088
0.242717 0.423035 -0.00188801
0.0578947 -0.372864 -0.0441484
0.0671331 -0.370106 -0.0353378
0.0681439 -0.382807 -0.0270042
0.068777 -0.383405 -0.0255941
0.0731087 -0.386673 -0.017927
0.0750613 -0.38742 -0.0162993
0.0739964 -0.387117 -0.0169328
0.415236 -0.146344 0.0777864
0.415215 -0.144821 0.0777085
0.383604 0.0424083 0.058722
0.383644 0.0436914 0.058832
0.383696 0.0449726 0.05899
0.383762 0.0462567 0.0591976
-0.214217 0.150416 -0.0954372
-0.146647 0.356277 -0.098868
-0.146396 0.358741 -0.0987669
-0.146516 0.357505 -0.0988173
-0.148879 0.347765 -0.104931
-0.148964 0.34708 -0.106587
-0.206761 0.218954 -0.0835139
-0.219001 -0.183744 -0.0375052
-0.218718 -0.184916 -0.0364494
-0.21842 -0.186106 -0.0353834
-0.21811 -0.187321 -0.0343019
-0.217784 -0.188568 -0.0332003
-0.215056 0.35171 -0.0301229
-0.21526 0.350266 -0.0307236
-0.215442 0.344889 -0.0333345
-0.215366 0.343631 -0.0340438
-0.215253 0.342391 -0.0347709
-0.225655 0.352345 -0.00260892
-0.224686 0.35202 -0.00166835
-0.22372 0.351697 -0.00075895
-0.230866 0.323879 -0.0119777
-0.228013 0.320194 -0.0237987
-0.227816 0.321652 -0.0247774
0.393431 -0.383453 0.05923
0.392481 -0.382806 0.058917
0.390874 -0.381169 0.0582497
0.390224 -0.380186 0.0578882
-0.228524 -0.162145 -0.0788292
-0.228174 -0.162219 -0.0778803
-0.226975 0.0265586 -0.00651519
-0.227305 0.0254052 -0.00583657
-0.087117 -0.259693 -0.311355
-0.0807886 -0.256097 -0.308286
-0.0802912 -0.255646 -0.308341
-0.0794333 -0.255018 -0.308484
-0.079255 -0.25494 -0.308529
0.414829 0.00620767 0.0915554
0.414493 0.00732328 0.0909927
0.414116 0.00834714 0.0903873
0.413703 0.00928708 0.089743
-0.210404 -0.102669 -0.0705552
0.395527 -0.148035 0.0658456
-0.213091 -0.0380573 -0.0462973
-0.208955 -0.0386861 -0.0419954
-0.206669 -0.350226 -0.00780901
-0.205096 -0.351538 -0.0123039
0.167607 -0.419321 0.0526831
0.168451 -0.419398 0.054329
0.129969 -0.417438 0.0417343
0.128053 -0.417518 0.0419988
0.108564 -0.418915 0.0472552
0.107217 -0.419004 0.0477043
0.0898398 -0.420461 0.0529928
0.0884422 -0.420633 0.053442
0.0870454 -0.420814 0.053907
0.085651 -0.421004 0.0543888
0.0251461 -0.434149 0.0893896
0.0242 -0.4345 0.0904335
-0.0897491 0.414815 -0.0095775
-0.0883149 0.41693 -0.00683441
-0.0875495 0.417942 -0.00543366
-0.0867516 0.418918 -0.00401545
-0.0850584 0.420751 -0.00113153
-0.0841662 0.421615 0.000327519
-0.0832482 0.422451 0.0017937
-0.0904175 0.413725 -0.0109179
-0.0911721 0.411919 0.000175947
-0.0912827 0.412296 0.00175069
-0.0913834 0.41308 0.0047173
-0.0911696 0.415397 0.0127374
-0.0316975 -0.438755 0.161515
0.397571 -0.0535446 0.0726838
-0.18902 0.40043 0.0155995
0.395039 0.0204284 0.0781333
-0.228977 0.22621 -0.0161096
-0.226811 0.225518 -0.0164605
-0.217458 -0.135146 -0.0244431
-0.233167 0.260603 -0.0338971
-0.108937 0.39928 -0.00723331
-0.109263 0.390265 -0.00946617
-0.10954 0.391161 -0.00817175
-0.110062 0.395071 -0.00331805
-0.143972 -0.25052 -0.325362
-0.144111 -0.24588 -0.327835
-0.143593 -0.246966 -0.328657
-0.144375 -0.247244 -0.333385
-0.146008 -0.245929 -0.335679
-0.146935 -0.245213 -0.336783
-0.147953 -0.244465 -0.337855
-0.13106 -0.369285 -0.039206
-0.131185 -0.370779 -0.0378928
-0.131355 -0.372234 -0.0365127
-0.0470013 0.38988 0.00375573
-0.213704 0.105795 -0.0799542
0.234509 0.37602 -0.0701465
0.235323 0.375912 -0.0685866
0.236932 0.3756 -0.0654404
0.237748 0.375421 -0.0638728
0.239442 0.375068 -0.060788
0.244719 0.38201 -0.0342418
-0.0706516 -0.406459 0.0678253
-0.0673972 -0.410218 0.0773948
-0.0689738 -0.411992 0.0827593
-0.0697037 -0.414141 0.0873698
-0.0697626 -0.414775 0.0883808
-0.0697963 -0.41545 0.0893487
-0.069745 -0.417139 0.0909691
-0.0692777 -0.422852 0.0937763
-0.0722723 -0.421884 0.0863063
-0.0733271 -0.42149 0.0853379
-0.167833 -0.282223 -0.237753
-0.166036 -0.287152 -0.232037
-0.165723 -0.293037 -0.220804
-0.169419 -0.279445 -0.240874
-0.170093 -0.278277 -0.242524
-0.0161735 -0.416653 0.0971216
-0.0178128 -0.416294 0.0983319
0.369435 -0.0962981 0.0608469
0.371393 -0.0963343 0.0613574
-0.218243 -0.317508 -0.0864109
-0.218871 -0.319591 -0.0829892
-0.191436 0.362824 -0.110194
-0.190307 0.363278 -0.109389
-0.189272 0.363743 -0.108548
-0.0566576 0.384439 -0.0185746
-0.0596331 0.381825 -0.024509
-0.0635037 0.378138 -0.032206
-0.0644536 0.37727 -0.034074
0.0786821 -0.387889 -0.0155072
-0.2352 -0.248784 0.0218466
-0.234918 -0.249795 0.0221689
-0.218863 -0.205193 -0.0827776
0.395354 -0.278922 0.0644034
-0.121412 0.36776 -0.102403
-0.129787 0.367979 -0.113677
-0.166791 0.384076 -0.078728
-0.167738 0.385193 -0.0761076
-0.226504 -0.0822348 -0.0633126
-0.231354 -0.0821095 -0.0700684
-0.228242 -0.0812352 -0.0680199
0.243464 0.382773 -0.0297912
0.243438 0.375182 -0.0535309
0.107147 -0.405196 0.0443311
0.161357 -0.362081 -0.0163105
0.161241 -0.35987 -0.0160065
0.0519049 -0.40502 0.0316104
0.0530546 -0.404972 0.0299883
0.299404 -0.395973 -0.00387898
0.297551 -0.396131 -0.0037636
0.17343 0.393566 -0.00809874
0.173631 0.391587 -0.00910138
0.173693 0.390518 -0.00951506
0.337919 0.115342 0.0452634
0.339237 0.115177 0.0444571
-0.0185914 -0.375837 0.0128398
-0.0196737 -0.375324 0.0127769
0.0747831 -0.421278 0.101705
0.0730595 -0.421405 0.10149
0.0713227 -0.42153 0.101278
-0.206251 0.109846 -0.0471075
-0.206398 0.112472 -0.0471771
-0.206562 0.113879 -0.0473373
0.136358 -0.391469 0.0106471
0.134041 -0.392201 0.0119536
-0.209027 -0.0904989 0.00599439
0.394905 0.266894 0.0650286
0.192505 -0.41788 0.0635986
-0.19645 0.36382 -0.0885391
-0.0738114 -0.352079 0.0638332
-0.0754738 -0.352234 0.0645424
-0.07862 -0.352628 0.06618
-0.0801015 -0.352868 0.0670919
0.386138 -0.287901 0.0587871
0.383286 -0.287181 0.0563764
0.38231 -0.286946 0.0555899
0.381317 -0.286715 0.054812
-0.123049 0.400825 0.00123483
-0.124615 0.401021 0.00165202
-0.129278 0.0123811 0.116112
-0.130991 0.0123929 0.116947
0.384142 0.0107815 0.06657
0.382932 0.0105414 0.0656498
0.381694 0.010341 0.0647394
0.357036 0.418454 0.0159345
0.358828 0.419041 0.0173171
-0.169165 -0.395059 0.0224266
-0.17588 -0.296916 0.110022
0.413451 -0.362022 0.0665414
0.413111 -0.364084 0.0661453
-0.0512843 -0.274575 -0.283741
-0.215456 -0.032843 -0.0869506
0.413989 -0.31547 0.0695303
-0.214837 0.261897 -0.0981012
-0.21399 0.26218 -0.0970614
-0.0926033 0.351149 -0.0965554
0.398105 0.0484213 0.0793373
0.398427 0.0495384 0.0786774
0.398779 0.0505632 0.0779712
-0.0555749 0.42925 -0.00652771
-0.0647592 0.437153 0.0123485
0.389434 -0.292364 0.0632647
0.389021 -0.293755 0.0630687
0.388359 -0.296551 0.0625542
0.388107 -0.297956 0.062235
-0.224043 0.205668 -0.00839819
-0.195523 -0.0920841 0.0287345
-0.198018 -0.0917157 0.0247921
-0.2004 -0.091348 0.0206646
-0.202811 -0.0909819 0.0163835
-0.0816455 -0.0957983 0.0580289
-0.0804174 -0.0957936 0.0576482
-0.0264389 -0.0980377 0.0788717
-0.0253281 -0.0980495 0.0790035
-0.02422 -0.0980507 0.0790465
0.338011 -0.0958383 0.0478145
0.160342 0.0109874 -0.0192102
0.160357 0.00921557 -0.0191846
0.397638 -0.17293 0.0649951
0.39838 -0.172718 0.0656934
0.399109 -0.172493 0.06641
-0.16522 -0.28341 -0.240997
-0.165968 -0.286557 -0.233507
-0.165748 -0.285382 -0.236487
-0.165597 -0.284762 -0.237987
-0.16586 -0.292241 -0.222195
-0.165554 -0.29381 -0.219399
-0.16536 -0.294561 -0.217983
-0.169514 -0.354242 0.0820871
-0.172576 -0.353439 0.0796008
0.065957 -0.421866 0.100682
-0.142099 -0.29988 -0.0238342
-0.141716 -0.299431 -0.0244315
-0.140919 -0.298573 -0.0254633
-0.139693 -0.297505 -0.0266104
-0.0264598 -0.540228 0.425548
-0.0272702 -0.540397 0.423493
-0.0363964 -0.532191 0.382489
-0.0349924 -0.532303 0.382701
-0.0280822 -0.533444 0.383809
-0.0246585 -0.534816 0.385104
-0.0185941 -0.541339 0.391939
-0.0180191 -0.542151 0.392721
0.0448089 0.352694 0.0582735
0.0432753 0.352445 0.0577313
0.0405446 0.351854 0.0563626
0.0393063 0.351519 0.055557
0.0369352 0.350809 0.0538045
0.0357649 0.350441 0.0528746
0.0333356 0.349697 0.0509154
0.0320013 0.349335 0.0499032
0.384453 0.34799 0.0548053
0.384399 0.349809 0.0546855
0.387384 0.343927 0.051516
0.218566 0.429436 0.0595508
0.216787 0.430113 0.0601109
-0.041745 0.36921 -0.0735409
-0.0392703 0.39696 -0.0744919
-0.03954 0.399145 -0.0752467
-0.0403029 0.405411 -0.0773435
-0.0405545 0.40745 -0.0780102
-0.0374442 0.369211 -0.0774057
-0.0369476 0.36832 -0.0786371
-0.0361211 0.36654 -0.0810762
-0.0357802 0.365649 -0.0822829
-0.0345925 0.36109 -0.0881801
-0.214931 -0.123945 -0.0463686
-0.221328 -0.121396 -0.0524346
-0.219057 -0.119431 -0.0745293
-0.223143 -0.119683 -0.082179
-0.219115 -0.120782 -0.0735037
0.340942 -0.370607 0.0348186
0.341063 -0.368782 0.0351225
0.273156 0.386606 -0.0283995
0.273752 0.386534 -0.0307096
0.274831 0.385597 -0.0349328
0.275279 0.384763 -0.0368418
-0.238184 -0.00292907 0.0316594
-0.238528 0.0280654 0.0299621
-0.237939 0.0305029 0.0297863
0.315696 -0.372619 0.0271213
0.315664 -0.374323 0.027113
-0.19916 0.279267 -0.0972577
-0.199123 0.280772 -0.0975328
-0.199075 0.282246 -0.0977816
-0.199152 0.261194 -0.0942469
-0.19919 0.259606 -0.0940386
-0.237032 0.204652 -0.0383797
-0.238089 0.206941 -0.0395554
-0.226931 0.06566 -0.00772153
-0.226909 0.0676457 -0.00788858
-0.207488 -0.147958 0.0171977
-0.220392 -0.149341 0.00347207
-0.221046 -0.151119 0.00238899
-0.221731 -0.15297 0.00134675
-0.216308 0.168095 0.0521933
-0.215769 0.168436 0.0540658
-0.214561 0.169121 0.0578552
-0.213896 0.169472 0.0597699
-0.253117 -0.184193 0.0240117
-0.253227 -0.185746 0.0242008
-0.253318 -0.187321 0.0243767
-0.142604 0.273419 -0.294854
-0.199251 0.293761 -0.0983635
-0.200636 0.334157 -0.108292
0.361182 -0.413298 0.0673657
0.359141 -0.413032 0.0662462
0.317005 -0.414185 0.0633231
0.315664 -0.414504 0.0639395
0.289139 -0.420156 0.0755357
0.287556 -0.420382 0.0759236
0.289406 -0.393247 0.0265846
0.288744 -0.392345 0.0256691
0.285072 -0.383879 0.0199369
0.284719 -0.382359 0.0192247
-0.136294 0.402998 0.00604127
-0.139781 0.403792 0.00801359
-0.140953 0.404085 0.00871944
0.187158 0.418029 0.0277475
0.188169 0.417964 0.0291922
-0.203839 -0.0492696 -0.0772443
-0.203875 -0.0510299 -0.0774061
-0.204051 -0.0618967 -0.0781027
-0.204086 -0.0637845 -0.0781565
-0.229379 0.074525 -0.00615504
0.190019 0.417946 0.0320598
0.19083 0.417955 0.0335088
-0.201836 0.110001 -0.0869924
-0.201849 0.11178 -0.0873325
-0.201892 0.102569 -0.085555
-0.214278 0.270495 -0.0984667
-0.213145 0.272799 -0.0973175
-0.21373 0.27166 -0.0979107
-0.167423 0.394632 0.0298713
-0.165959 0.395028 0.0305955
-0.163204 0.395886 0.0320891
-0.161936 0.396349 0.0328746
-0.190771 0.361343 -0.0819076
-0.131967 -0.333524 -0.0583993
-0.132017 -0.331903 -0.0587445
-0.131693 -0.311206 -0.0606237
-0.131665 -0.309576 -0.0607158
-0.178795 -0.388268 0.00697411
-0.199715 0.328639 -0.10608
-0.199563 0.327623 -0.10568
-0.199415 0.326538 -0.105268
-0.126774 -0.419849 0.106408
-0.126415 -0.419311 0.104833
-0.126004 -0.418775 0.103259
-0.125531 -0.41824 0.101688
-0.124368 -0.417175 0.0985542
-0.123665 -0.416641 0.0969928
-0.0807573 0.382113 -0.0313728
-0.0810263 0.383094 -0.0295552
-0.081339 0.384137 -0.0277639
0.399286 0.0857183 0.067945
0.40043 0.085273 0.0686799
0.401533 0.0848415 0.0694344
-0.243722 0.109711 0.00569818
-0.243191 0.109749 0.006735
-0.241973 0.110052 0.00860448
-0.241286 0.110303 0.0094248
-0.19562 -0.166834 -0.0766277
-0.195551 -0.170137 -0.0764078
-0.191309 0.00494516 -0.0759683
0.11581 -0.402175 0.0582184
-0.135586 -0.240162 0.050305
-0.134121 -0.240217 0.050471
-0.0936731 0.434313 0.0425003
-0.0943138 0.433731 0.0413792
-0.213386 -0.102747 -0.0706351
-0.100414 -0.399867 0.112917
-0.0988974 -0.400252 0.113686
-0.0310168 -0.405116 0.123544
-0.0495039 0.393564 0.0424007
-0.0508427 0.393045 0.0413337
0.276278 0.446534 0.0916907
-0.0332868 -0.414053 0.0818726
0.272471 0.381028 0.0168083
0.271312 0.380616 0.0157623
0.355094 0.384 0.0327278
0.414784 -0.171055 0.077007
0.414642 -0.172594 0.0769429
0.413984 -0.177222 0.0768394
0.413684 -0.178768 0.076834
0.20475 0.348525 -0.0225308
0.205144 0.349407 -0.0209647
0.097926 0.472371 0.0141518
0.0965276 0.472419 0.0146469
0.0951784 0.47242 0.0150277
0.0938679 0.472381 0.0152997
0.0926119 0.47228 0.0153885
0.0914025 0.472123 0.015294
0.0902356 0.471909 0.0150224
0.0891096 0.471642 0.0145857
0.0880235 0.47133 0.0140022
0.0869739 0.470978 0.0132934
0.085955 0.470594 0.0124787
0.0811002 0.468329 0.00722285
0.0801503 0.467798 0.0060035
0.0792052 0.467235 0.00474416
0.0782642 0.466641 0.00344807
0.0716356 0.461776 -0.00642023
0.033346 0.435455 -0.0559376
0.0343493 0.436152 -0.0547274
0.0353521 0.436846 -0.0535122
0.0363544 0.437535 -0.0522894
0.0373572 0.438222 -0.0510575
0.0383625 0.438909 -0.0498165
0.039373 0.439607 -0.0485683
0.0403897 0.440324 -0.0473149
0.0414147 0.441063 -0.046056
0.0424508 0.44182 -0.0447879
0.0434996 0.442587 -0.0435038
0.0445624 0.443355 -0.0421978
0.0456413 0.444119 -0.040866
0.0467391 0.444885 -0.0395079
0.0478585 0.445656 -0.0381247
0.0490024 0.446436 -0.0367155
0.0501712 0.447229 -0.0352814
0.0513626 0.448044 -0.033825
0.0525749 0.448882 -0.0323469
0.0538082 0.449737 -0.0308449
0.055066 0.4506 -0.0293152
0.0563526 0.451455 -0.0277515
0.0576663 0.452287 -0.0261492
0.0589986 0.453094 -0.0245105
0.0603347 0.453881 -0.0228421
0.061661 0.454656 -0.0211544
0.0629616 0.455431 -0.0194585
0.0642176 0.456213 -0.0177649
0.0654061 0.457011 -0.0160855
0.0665103 0.457832 -0.0144348
0.069633 0.460238 -0.00956322
0.0706456 0.461012 -0.00796944
0.0773261 0.466015 0.00211714
0.0820544 0.468829 0.00839771
0.0830143 0.469302 0.00952085
0.0839817 0.469753 0.0105822
0.258546 -0.374483 0.028329
0.257043 -0.374446 0.0279048
0.253891 -0.374362 0.0271524
0.252226 -0.374321 0.0268359
-0.0797313 0.440616 0.0211908
-0.08197 0.441259 0.0228256
-0.139546 0.383338 0.0269202
-0.137291 0.383892 0.027993
-0.136198 0.384183 0.0285673
0.34607 -0.366982 0.043904
0.345743 -0.367733 0.0460577
0.345079 -0.369198 0.0503898
0.344736 -0.369909 0.0525728
0.344385 -0.370609 0.0547666
0.343663 -0.372008 0.0591729
0.343294 -0.372724 0.061377
-0.17827 0.21374 0.0331631
-0.179492 0.213593 0.0323739
-0.193982 0.211428 0.0223842
-0.197794 0.21122 0.0214122
-0.202953 0.210996 0.0208496
-0.204278 0.210934 0.0208578
-0.2114 0.210715 0.0221103
-0.212889 0.210726 0.0226033
-0.217293 0.211022 0.0243486
-0.218711 0.211254 0.0250045
-0.220066 0.211596 0.0256778
-0.18657 0.310739 0.0578772
-0.182582 0.311485 0.0601994
-0.17265 0.313482 0.0661897
-0.171676 0.313612 0.0665727
-0.167338 0.313966 0.0676076
-0.163474 0.314015 0.0677432
-0.115845 0.309238 0.0503277
-0.114551 0.309108 0.0498139
-0.111902 0.308858 0.0487988
-0.110544 0.308738 0.0482962
-0.0919471 0.447103 0.0351768
0.0961137 0.520765 0.112825
0.095424 0.519386 0.110028
0.0951374 0.518703 0.108604
0.0957501 0.520074 0.111436
0.0965104 0.521457 0.114196
0.0969342 0.522148 0.115552
0.0973787 0.522838 0.116894
0.0978363 0.523526 0.118228
-0.108092 0.0623887 0.0347058
-0.106727 0.0624594 0.0349284
-0.104006 0.0626008 0.0353837
-0.102647 0.0626686 0.0356187
0.374865 -0.339958 0.0487673
0.375048 -0.341375 0.0487262
0.375263 -0.342759 0.0486799
-0.22251 -0.289907 0.087306
-0.223323 -0.289563 0.0860867
-0.224669 -0.288847 0.0834852
-0.225214 -0.288468 0.0821174
-0.187631 0.252301 -0.0905904
-0.187687 0.253879 -0.0909738
0.128856 0.212571 0.015647
0.130529 0.212622 0.0159763
-0.131457 -0.284061 -0.0609612
-0.131431 -0.282672 -0.0609769
-0.223999 0.0914718 0.00202432
-0.223683 0.0907215 0.00342566
-0.189805 0.0957699 -0.0797556
-0.189596 0.102473 -0.0796222
-0.189559 0.103745 -0.0795653
-0.189526 0.105003 -0.0795009
-0.189216 0.116092 -0.078792
-0.189173 0.117312 -0.0787102
-0.188314 0.261695 -0.0933304
-0.188471 0.263228 -0.0938654
-0.187955 0.286073 -0.0975914
-0.187836 0.287547 -0.0974853
-0.187733 0.289056 -0.0973621
0.393034 0.35856 0.0629572
0.393421 0.358773 0.0634955
-0.128708 0.439723 0.0230319
0.386799 -0.0259643 0.0693441
-0.204076 -0.161091 -0.0701014
-0.199234 0.258024 -0.0938322
-0.199433 -0.357418 -0.0486764
-0.198742 -0.35722 -0.0471444
-0.198112 -0.357176 -0.0456437
-0.196139 -0.35826 -0.0398613
-0.19575 -0.358738 -0.0384309
-0.209348 -0.354432 -0.0594201
-0.208156 -0.354678 -0.0590803
-0.205553 -0.355183 -0.0583101
0.39991 -0.13826 0.0639385
0.400172 -0.13657 0.0640275
0.400429 -0.134932 0.0641356
0.0822189 0.316942 -0.187499
0.082633 0.317854 -0.18609
-0.199953 0.266769 -0.0743693
-0.207421 0.263652 -0.0896854
-0.217912 0.260623 -0.102291
-0.223313 0.256845 -0.110711
-0.223371 0.255469 -0.111105
-0.0548948 0.361631 -0.0899576
-0.229044 0.331664 -0.0304057
-0.229725 0.333618 -0.0312848
-0.232546 -0.00536077 0.000654962
-0.233743 -0.00388075 -0.00113815
-0.213492 -0.188696 -0.0722671
0.134673 0.380136 -0.0460655
-0.0640546 0.360539 -0.0796822
-0.218692 0.128001 -0.0893182
-0.218682 -0.243396 -0.0590195
-0.219041 -0.242258 -0.0601833
-0.219432 -0.241107 -0.0613442
-0.219865 -0.239936 -0.0625014
0.118264 0.33212 -0.16593
0.111887 0.349714 -0.120095
0.111991 0.348139 -0.121823
-0.217172 0.333997 -0.105279
-0.215786 0.339939 -0.101854
-0.249754 -0.240662 0.00869391
-0.234423 0.115009 -0.0252417
-0.213961 0.0347876 -0.0813933
-0.213486 0.035264 -0.0804126
-0.222994 -0.25794 -0.0888665
0.405099 -0.170526 0.0739164
0.402597 -0.171258 0.0703133
0.401926 -0.171501 0.0694837
0.401239 -0.171753 0.068681
-0.20762 0.266715 -0.0632846
-0.205819 0.269646 -0.0604951
-0.208217 0.26577 -0.0642124
-0.208818 0.26484 -0.0651385
-0.215468 0.268573 -0.0598389
-0.241513 0.196642 -0.0224067
-0.241598 0.194885 -0.0221268
-0.236571 0.0856574 0.00337542
0.0934426 0.410341 -0.111401
-0.0448844 0.378583 -0.0650646
-0.0451572 0.379488 -0.0638803
-0.132399 0.324775 -0.16101
-0.13159 0.324205 -0.162202
-0.13087 0.323664 -0.163412
-0.130235 0.323153 -0.16464
-0.111295 0.374198 -0.0420509
-0.110449 0.375762 -0.0366941
-0.110396 0.380382 -0.0288954
-0.241357 0.166254 -0.0200966
-0.242982 0.275918 -0.0284901
-0.242446 0.276585 -0.0269113
-0.224831 0.345738 -0.00197943
-0.22445 0.344451 -0.00285731
-0.2085 0.322466 -0.0875498
-0.211645 0.317642 -0.0906116
-0.250903 -0.310065 0.016285
-0.250536 -0.311951 0.0160303
-0.211619 -0.328517 -0.104395
-0.212878 -0.328033 -0.104683
-0.0833461 0.371964 -0.0500317
-0.0857479 0.371835 -0.0507414
-0.216191 -0.296062 0.0490849
-0.216505 -0.297078 0.0499154
-0.207781 0.305888 -0.0928567
0.291027 -0.431149 0.130364
0.292151 -0.431101 0.128342
0.293347 -0.430983 0.126314
0.294604 -0.430781 0.124289
0.295908 -0.43049 0.122275
0.415427 0.462381 0.116859
0.414501 0.461573 0.115005
0.413584 0.46072 0.113129
0.412688 0.459822 0.111232
0.411828 0.45888 0.109309
0.411014 0.457896 0.107362
0.410249 0.456874 0.105401
0.409524 0.455817 0.103438
0.393624 -0.414423 0.0598912
0.205708 -0.394983 0.0565247
0.282944 -0.434224 0.173705
0.419924 -0.257642 0.104937
0.420623 -0.260082 0.105235
0.421335 -0.262519 0.105518
0.422007 -0.26494 0.105816
0.422619 -0.267332 0.106139
0.407288 -0.204246 0.0823203
0.40672 -0.203273 0.081461
0.406118 -0.202371 0.080571
0.304108 -0.372497 0.0281952
0.00580226 -0.379901 0.0148563
-0.0230377 -0.366069 -0.040637
-0.0229485 -0.363098 -0.0462932
-0.208626 -0.186894 0.0153451
-0.208754 -0.184068 0.0142252
-0.119684 -0.261941 -0.287136
0.193127 -0.337365 -0.104859
0.193324 -0.337517 -0.102583
0.193543 -0.337677 -0.100285
0.239612 -0.440419 0.171129
0.240044 -0.440907 0.172586
0.240494 -0.441406 0.174029
-0.164933 -0.296034 -0.215136
0.304923 -0.458269 0.18891
0.306543 -0.458825 0.190081
-0.205698 0.24112 -0.0413189
-0.204556 0.241794 -0.0394779
0.347856 -0.43387 0.151323
-0.0761829 -0.377095 0.0131794
-0.0772076 -0.376867 0.0115318
-0.078298 -0.376611 0.00985342
-0.0794583 -0.376309 0.00816359
-0.0806801 -0.375941 0.00647725
-0.0379051 -0.377007 0.0158367
-0.0359063 -0.375817 0.0152964
-0.0338996 -0.374761 0.0147822
-0.0319526 -0.373943 0.0143034
-0.0301283 -0.373416 0.0138809
-0.223179 -0.232828 0.0122742
-0.223116 -0.231137 0.0124377
-0.223053 -0.229435 0.0126132
-0.224607 -0.219901 0.00585325
-0.0729626 -0.426684 0.114153
-0.0710671 -0.42761 0.115375
-0.0692357 -0.428561 0.11663
-0.067479 -0.429545 0.117914
0.0472292 -0.426761 0.121441
0.0496646 -0.426749 0.121626
0.0520966 -0.42675 0.121797
0.0545261 -0.42676 0.12196
0.0569531 -0.426774 0.122121
0.113699 -0.389153 -0.0238824
-0.227829 -0.284035 0.07093
-0.228065 -0.283187 0.0696504
-0.228298 -0.282258 0.0684215
0.354525 -0.416636 0.102116
0.356253 -0.416884 0.103088
0.357882 -0.417217 0.104108
0.359413 -0.417622 0.105181
-0.209281 0.119393 0.0757913
-0.209921 0.119228 0.074114
-0.210547 0.119062 0.0724135
-0.201735 0.186877 -0.0883613
-0.206053 0.179827 -0.109059
-0.206224 0.180057 -0.108206
0.103917 0.351613 -0.111025
0.102324 0.351525 -0.109979
0.179137 0.342942 -0.119311
0.0215765 -0.205254 0.0947884
0.0185138 -0.203558 0.0855397
-0.0435525 -0.418087 0.118357
-0.0445263 -0.417073 0.117027
-0.0454872 -0.415964 0.115731
-0.0473473 -0.413531 0.113195
-0.0464286 -0.414771 0.11446
-0.106636 0.334663 -0.136651
-0.105711 0.334041 -0.138262
-0.104765 0.333412 -0.139872
0.162038 -0.413022 0.0978248
0.133118 -0.378598 -0.00705901
0.132172 -0.376896 -0.00646697
0.131149 -0.375133 -0.00580888
0.130096 -0.373345 -0.0051243
0.237572 0.453291 0.101337
0.237789 0.453983 0.102854
0.388905 -0.19907 0.0606376
-0.160429 -0.304803 -0.0240677
-0.159968 -0.304175 -0.0229381
-0.159228 -0.30377 -0.0217907
0.231692 0.412906 0.0270265
0.176111 0.386003 -0.0733776
0.286578 0.429009 0.0592491
0.286123 0.429665 0.0610015
-0.182255 -0.399081 0.157083
-0.183249 -0.399362 0.157629
-0.184199 -0.39967 0.158251
-0.185096 -0.400003 0.158949
-0.185931 -0.400356 0.15972
0.173054 -0.417975 0.112589
0.17167 -0.418327 0.114052
0.416131 -0.024958 0.0884562
0.414149 0.0683191 0.0874023
0.414292 0.0708313 0.0869283
0.414481 0.0733387 0.0863979
0.414718 0.0758312 0.0858183
0.403469 0.256223 0.0880611
0.403704 0.257598 0.0885706
0.403936 0.258992 0.0890823
0.404164 0.260416 0.0895949
-0.201347 0.255001 0.0153608
-0.202246 0.254353 0.0139172
0.192184 0.399142 -0.0214494
0.193023 0.397916 -0.0192927
0.193967 0.396909 -0.0172142
0.194989 0.39605 -0.015198
0.196086 0.395303 -0.0132349
-0.0846926 -0.417261 0.125731
-0.0825887 -0.417209 0.124853
-0.0802082 -0.417171 0.123651
-0.0775822 -0.41712 0.121987
-0.0749269 -0.417101 0.12006
-0.221986 -0.20373 0.00824513
-0.221905 -0.201748 0.00796201
-0.221822 -0.199742 0.00766926
-0.221745 -0.197724 0.00736003
-0.221686 -0.195699 0.0070303
0.306448 0.431173 0.0256493
0.309616 0.43224 0.0235213
0.31051 0.432767 0.0228398
0.311405 0.4333 0.022156
-0.131627 -0.339257 -0.0564235
-0.131557 -0.340552 -0.0557749
-0.131508 -0.34181 -0.0550603
-0.131485 -0.343042 -0.054279
-0.131493 -0.344257 -0.0534318
0.228672 0.347303 -0.0881348
-0.21629 0.218578 -0.0721347
-0.216177 0.219987 -0.0720192
-0.216062 0.22138 -0.0718981
-0.215941 0.222749 -0.0717701
-0.0391532 -0.378522 0.0223608
-0.161866 -0.34236 -0.0521943
-0.157568 -0.35863 -0.0380024
-0.157473 -0.36172 -0.0369729
0.35946 0.296969 0.0207855
0.360896 0.297414 0.0221218
0.362295 0.297898 0.0235636
0.363654 0.298421 0.0251178
0.364967 0.298979 0.0267871
0.415161 0.280331 0.0760382
0.415206 0.278578 0.0762697
0.415235 0.276769 0.0764803
0.415252 0.274904 0.076671
0.415259 0.272984 0.0768421
-0.216399 0.293008 -0.0329229
-0.216291 0.294724 -0.0336511
-0.216106 0.296421 -0.0344389
-0.215831 0.298099 -0.0352907
-0.215458 0.299755 -0.0362077
-0.0286215 -0.406254 0.0530982
-0.026749 -0.406793 0.0547293
-0.024953 -0.407383 0.0563885
-0.0234044 -0.408028 0.0580768
-0.0221801 -0.408721 0.0597757
-0.0661151 0.179824 0.110602
-0.0640343 0.17987 0.110697
-0.0619536 0.179916 0.110791
-0.0598728 0.179963 0.110885
-0.0577921 0.180009 0.110979
-0.0557113 0.180055 0.111074
-0.0536306 0.180101 0.111168
-0.0515498 0.180147 0.111262
-0.0494691 0.180194 0.111356
-0.0473883 0.18024 0.11145
-0.0453076 0.180286 0.111545
-0.0432268 0.180332 0.111639
-0.0411461 0.180379 0.111733
-0.0390653 0.180425 0.111827
-0.0369845 0.180471 0.111921
-0.0349038 0.180517 0.112016
-0.032823 0.180564 0.11211
-0.0307423 0.18061 0.112204
-0.0286615 0.180656 0.112298
-0.0265808 0.180702 0.112393
0.087095 0.328558 -0.148593
-0.231326 -0.158465 0.015285
-0.23085 -0.15886 0.0145671
-0.230554 -0.159117 0.0140983
0.0565727 0.299742 0.00933104
0.335427 0.304306 0.0394721
0.375869 -0.153178 0.058378
0.375862 -0.154993 0.0583074
0.375852 -0.15684 0.0582299
0.375838 -0.158708 0.0581481
-0.231116 -0.0445966 0.0212171
-0.231224 -0.04366 0.0218125
-0.231363 -0.0427255 0.0224261
-0.231542 -0.0417935 0.0230631
-0.221165 -0.27735 -0.0580491
-0.221511 -0.275519 -0.0583131
-0.208692 -0.185477 0.0147876
-0.23916 0.0929284 -0.0265148
0.0223896 -0.310367 -0.18611
0.0214275 -0.30995 -0.187991
-0.0230384 -0.361707 -0.0464771
-0.0225357 -0.369692 -0.0452611
-0.0224599 -0.370958 -0.0450473
-0.0223831 -0.372208 -0.0448295
0.441093 0.443791 0.156946
0.441207 0.442016 0.157428
0.441351 0.434634 0.159171
0.441321 0.432653 0.159608
0.206676 -0.394416 -0.00184207
0.206241 -0.388973 -0.00430835
0.206171 -0.387349 -0.0047223
-0.230035 -0.272991 -0.0229175
-0.229566 -0.272956 -0.0211878
-0.22857 -0.272371 -0.0114782
-0.191975 -0.302644 -0.050573
0.0916592 0.37039 -0.0544501
0.032342 0.434758 -0.0571463
-0.127291 -0.248273 -0.330313
-0.128862 -0.24687 -0.334198
-0.130143 -0.245741 -0.336641
-0.0589883 -0.396509 0.139085
-0.0601554 -0.398683 0.141234
0.141721 -0.453507 0.158549
0.140244 -0.453397 0.15819
0.138794 -0.453272 0.157783
0.173258 0.394471 -0.00747665
0.173553 0.392613 -0.00864487
0.33892 -0.431446 0.146952
0.337497 -0.431058 0.146448
0.41145 -0.195553 0.0758962
0.127015 -0.439211 0.168041
0.12337 -0.432374 0.157098
0.124947 -0.435802 0.162501
0.125362 -0.436491 0.163596
0.109378 -0.424444 0.123065
0.111536 -0.423688 0.124422
0.107174 -0.425232 0.121702
0.113946 -0.382061 -0.0267222
0.114027 -0.380581 -0.027211
0.114228 -0.377462 -0.028031
0.114343 -0.3758 -0.0283433
0.11505 -0.301475 -0.022595
0.115036 -0.299705 -0.0225703
-0.225686 -0.288068 0.0807175
-0.22404 -0.28921 0.0848111
-0.160693 0.120288 0.0805458
-0.0749931 0.118873 0.0637477
-0.0738926 0.118888 0.0637983
0.111603 0.350236 -0.119166
0.111989 0.349011 -0.120978
0.359155 -0.243569 0.0542585
0.360525 -0.243637 0.0545665
0.361925 -0.243699 0.0548526
-0.13477 -0.241508 -0.345902
-0.1352 -0.241046 -0.347368
-0.199613 -0.367031 0.016508
-0.199654 -0.366938 0.0136883
-0.20432 -0.352015 -0.0144769
-0.202844 -0.352475 -0.0186028
-0.200877 -0.351916 -0.0242191
0.0770206 -0.386594 0.0180122
0.079442 -0.393984 0.0284391
0.161598 -0.419091 0.0598999
0.160252 -0.419292 0.0603316
0.122526 -0.417837 0.043081
0.120772 -0.417968 0.0435065
0.117417 -0.418237 0.0444182
0.164919 -0.41893 0.0478611
0.169048 -0.418741 0.059058
-0.0287054 -0.432652 0.152615
-0.0359424 -0.423886 0.130095
-0.209663 -0.317546 -0.077058
-0.210419 -0.316876 -0.0777979
-0.218184 -0.316882 -0.0872003
-0.206005 -0.328515 -0.0519459
-0.18971 0.400089 0.0147637
0.395469 0.0217435 0.0788478
0.384017 0.0318908 0.0603473
-0.204446 0.0657007 0.00318362
-0.202958 0.0574342 -0.0211764
-0.203049 0.06915 -0.00240668
-0.222579 0.0569944 -0.0412657
-0.218694 0.0581212 -0.0296653
-0.194974 -0.29751 -0.177664
-0.185331 -0.304417 -0.171668
0.127064 0.327035 -0.168458
0.156344 0.381071 -0.0584732
0.148937 0.381069 -0.052481
0.15558 0.385516 -0.0454051
0.158566 0.369877 -0.0471018
0.158594 0.367933 -0.0467705
0.158901 0.28943 -0.0383024
0.158891 0.287881 -0.0381816
0.158883 0.286325 -0.0380549
0.154088 0.378019 -0.0669193
0.158686 0.373117 -0.0782239
0.155815 0.379771 -0.0619339
0.155799 0.36179 -0.0916775
-0.225053 0.00799613 -0.073319
-0.120978 -0.247926 -0.340468
-0.121022 -0.239245 -0.343986
-0.118367 -0.238835 -0.346997
-0.236485 0.203402 -0.0377076
-0.227748 -0.131776 -0.0335985
-0.210626 -0.133002 -0.0394792
-0.205374 -0.133954 -0.034115
-0.203488 -0.134242 -0.0322998
-0.205936 -0.136724 -0.00736368
-0.215549 -0.136739 -0.0235936
-0.219972 -0.130573 -0.0224703
-0.215682 -0.139142 0.0137113
-0.0634973 0.349397 -0.127402
-0.220888 -0.0897268 -0.0107361
-0.220072 -0.089846 -0.00937292
-0.222908 0.265891 -0.0237701
-0.235367 0.335174 -0.00441505
0.385744 0.266214 0.0600132
0.38575 0.267483 0.0600239
-0.252806 -0.18116 0.0235863
-0.252978 -0.182665 0.0238075
-0.212774 0.291259 -0.0732359
-0.212421 0.292012 -0.0719118
-0.198323 0.378545 -0.00194098
-0.234723 0.218001 -0.0174259
-0.20428 0.00522722 -0.0845748
-0.204741 0.00783754 -0.0860964
0.395108 0.143653 0.074645
0.394799 0.145309 0.0740283
0.394481 0.146956 0.0734078
-0.055818 0.351335 -0.115995
-0.0575705 0.344589 -0.130319
-0.0559749 0.348631 -0.125423
-0.0561494 0.351758 -0.114326
-0.0642997 0.347619 -0.135669
-0.0566195 0.352201 -0.112638
-0.0542572 0.352001 -0.102981
-0.232757 -0.310319 -0.0594293
-0.23415 -0.311892 -0.0557835
-0.226069 -0.331771 -0.00772604
-0.225171 -0.332424 -0.00497126
-0.224474 -0.332954 -0.00219575
-0.21067 -0.000853222 -0.0295629
-0.215992 5.34767e-06 -0.0425654
-0.209762 -0.000959002 -0.0278261
-0.214877 -0.000217786 -0.0385543
-0.214155 -0.000353495 -0.0366715
-0.215495 -9.30137e-05 -0.0405135
-0.224937 -0.00229473 -0.0735139
-0.225198 -0.000857176 -0.073343
-0.0645025 -0.411838 0.0574875
-0.0212348 -0.409442 0.0614743
-0.0697961 -0.416212 0.0902331
-0.0696685 -0.418163 0.0916204
-0.0373589 -0.415687 0.0856008
-0.19899 -0.365733 -0.00343348
-0.214465 -0.162865 -0.0814813
-0.224574 -0.233951 -0.0909334
-0.224015 -0.229033 -0.0957969
-0.224499 -0.223911 -0.0952705
-0.0943786 0.347679 -0.111431
-0.0902122 0.360506 -0.0930181
-0.230833 -0.274923 0.0042809
-0.228578 -0.272147 -0.00725979
-0.217071 0.104707 -0.0840017
-0.214587 0.33053 -0.0599471
-0.218638 0.328887 -0.0640838
-0.199143 0.337953 -0.110535
-0.195339 0.35234 -0.0874946
-0.196337 0.341382 -0.102881
-0.142851 0.329611 -0.150253
-0.14309 0.333482 -0.160782
-0.142527 0.33318 -0.162924
-0.141266 0.33255 -0.167208
-0.140616 0.332216 -0.169331
-0.141613 0.339236 -0.131744
-0.139926 0.341025 -0.12907
-0.148167 0.332717 -0.154742
-0.108246 -0.361778 -0.0328865
-0.108979 -0.361823 -0.0360125
0.100103 -0.405985 0.049368
-0.0737864 0.345861 -0.138063
-0.0739375 0.339179 -0.14203
-0.222871 -0.338098 0.0536725
-0.226538 -0.341575 0.0475919
-0.221899 -0.117601 -0.00435937
0.107447 -0.397309 0.0285967
0.108535 -0.396993 0.0277065
0.387876 -0.299366 0.0618974
0.387323 -0.303677 0.0607449
0.387189 -0.305163 0.0603049
-0.126705 -0.240296 -0.344819
-0.118794 -0.238555 -0.347752
-0.117511 -0.239391 -0.345488
0.36171 -0.282387 0.0473453
0.361711 -0.283843 0.0473466
0.359875 -0.285919 0.0513423
0.110841 0.367488 -0.0746558
0.249681 0.415992 0.0391429
0.251227 0.415458 0.0349218
-0.211538 -0.0752745 -0.0694329
-0.216239 -0.0788763 -0.0701505
-0.220918 -0.0870103 -0.0816181
-0.20067 -0.344651 -0.0390492
-0.116839 -0.408315 0.0486222
0.20132 0.436221 0.0615154
0.199874 0.436506 0.0612044
-0.218968 0.0584778 -0.0991098
0.402594 0.0844242 0.0702082
-0.234484 -0.251928 0.0227962
-0.148113 0.34455 -0.0980793
-0.237181 0.233521 -0.0406434
0.222605 0.416624 -0.00167292
0.223874 0.416794 -0.00142578
0.345597 0.215578 0.043949
0.344095 0.215452 0.0432326
-0.0614826 0.218226 0.0450651
-0.0628243 0.218293 0.0454137
-0.0694129 0.218493 0.0465196
-0.0707315 0.218506 0.0466263
-0.144427 0.215266 0.0383999
-0.146174 0.215227 0.0383706
-0.176992 0.213878 0.0339165
-0.180666 0.213437 0.031556
-0.160868 0.30758 -0.226436
-0.159625 0.307237 -0.220074
-0.211926 0.275007 -0.0959647
-0.211331 0.276079 -0.0951534
-0.208508 0.283025 -0.0894891
-0.207846 0.285653 -0.0874964
-0.216447 0.0466346 -0.0984492
-0.21607 0.13433 -0.0998069
-0.215584 0.140686 -0.0873771
-0.218819 -0.0860912 -0.0641692
-0.121822 0.368665 -0.103287
-0.241465 -0.0973293 -0.010326
0.075531 0.307233 -0.204485
0.0728079 0.305604 -0.209128
0.0718239 0.305092 -0.210668
0.0800814 0.312205 -0.194211
0.0818188 0.315996 -0.188875
-0.0406518 0.406096 0.00285934
-0.0485333 0.427826 0.0223402
-0.0489551 0.428708 0.0245149
-0.0497168 0.430471 0.0287732
-0.0500724 0.43134 0.0308504
-0.0508034 0.433027 0.0348848
-0.0512089 0.433839 0.0368332
-0.0521577 0.435392 0.040561
-0.0527204 0.436131 0.0423249
-0.0533548 0.436843 0.0440119
-0.0548598 0.438181 0.0471226
-0.0557364 0.438805 0.0485308
-0.0599918 0.440967 0.0531189
-0.0612221 0.44141 0.0540059
-0.0652681 0.442459 0.0560611
-0.066724 0.442705 0.0565397
-0.0682224 0.442897 0.0569105
-0.0425566 0.399619 0.00502937
-0.117712 0.344045 -0.116774
-0.116614 0.343096 -0.118571
-0.120487 0.346749 -0.111053
-0.12115 0.34758 -0.109065
-0.122081 0.349184 -0.10502
-0.227969 0.219815 -0.0893202
-0.252311 -0.308105 0.0230875
-0.221623 -0.0562742 -0.0174648
0.145387 -0.336224 -0.144829
0.146422 -0.336643 -0.14379
0.0854141 -0.404754 0.0734032
-0.184646 -0.297052 -0.194764
-0.188876 -0.296748 -0.197337
-0.190382 -0.296364 -0.195897
-0.215486 0.316851 -0.101259
-0.217458 0.314014 -0.107927
0.135856 0.330665 -0.160137
0.129543 0.333289 -0.165548
0.129848 0.333718 -0.165553
0.130424 0.334854 -0.163359
0.145797 0.373403 -0.0792838
-0.230914 0.23539 -0.00585849
-0.23074 0.121087 -0.00733536
-0.241088 0.207316 -0.0243383
-0.121444 -0.240899 -0.340802
-0.132771 -0.236409 -0.354085
-0.135143 -0.238064 -0.355751
-0.21138 -0.0867488 -0.0193452
-0.212116 -0.0917897 -0.0186287
-0.209512 0.159938 -0.0815031
-0.216808 0.167572 -0.109928
-0.199956 0.190174 -0.0677673
-0.247998 -0.157257 0.0157419
0.196714 -0.413052 0.065497
0.382478 -0.242352 0.0522042
0.38273 -0.243168 0.0567552
0.23669 0.449806 0.0937153
0.236454 0.448377 0.0906313
-0.0757841 0.339077 -0.138369
-0.0773615 0.337727 -0.140338
-0.0710466 0.339408 -0.132646
-0.21027 0.0129315 -0.0635719
-0.222371 -0.0239663 -0.0863825
-0.149021 0.345678 -0.109917
-0.148816 0.344196 -0.113285
-0.145308 0.336822 -0.130625
0.391043 -0.206605 0.0523502
-0.220115 0.0332591 -0.0137218
-0.217227 0.0354535 -0.0167387
0.327282 0.437074 0.0507275
0.32626 0.436911 0.0513878
0.0337025 -0.420291 0.0907335
-0.197274 -0.355156 0.0893719
-0.194648 -0.353015 0.0833592
-0.193768 -0.352406 0.0815781
-0.19188 -0.351379 0.078465
-0.20484 0.364737 -0.0160506
0.410492 -0.0798992 0.07488
-0.214952 -0.030242 -0.078586
-0.214637 -0.0286748 -0.078209
-0.215694 -0.0384565 -0.0497341
-0.214943 -0.0380476 -0.0485335
-0.214046 -0.0379861 -0.0474007
-0.225443 -0.0356214 -0.102098
-0.225281 -0.0356647 -0.101799
-0.171391 -0.0404189 0.000800095
-0.201714 -0.0390444 -0.0408018
-0.170345 -0.0405458 0.0024993
-0.201557 -0.039156 -0.0406206
-0.201492 -0.0392155 -0.0405343
-0.233469 0.181717 0.00497717
-0.138062 0.303484 -0.213409
-0.0902046 0.381329 -0.0911104
0.369899 0.380059 0.0275959
0.370171 0.380972 0.0293133
0.371405 0.383411 0.034389
-0.225615 0.00486415 -0.0728316
-0.223169 0.205329 -0.00745202
-0.237474 -0.0789742 0.0071738
-0.0723841 0.403913 0.0433035
-0.0715102 0.404221 0.0440491
-0.0949038 0.401871 0.041533
0.3905 -0.344194 0.0563448
0.225814 0.412665 0.0306211
0.21304 0.427633 -0.00707927
0.39176 -0.0701702 0.0710881
0.39403 -0.0596477 0.0726683
0.394131 -0.0583935 0.0726228
-0.231087 0.0490892 0.0105848
0.224595 0.388744 -0.0612196
0.19674 0.390721 -0.0672148
0.192683 0.389535 -0.0692957
0.408049 -0.220797 0.0698283
0.375979 0.217009 0.0569007
0.371755 0.216346 0.0497786
0.37867 0.216621 0.0505449
-0.216289 -0.00875497 -0.0723871
-0.215951 -0.00882385 -0.0714997
-0.249821 -0.0932098 0.00476827
-0.195961 -0.327595 -0.11112
-0.198233 -0.331206 -0.102802
-0.199193 -0.331272 -0.102655
-0.202324 -0.331055 -0.102663
-0.203414 -0.330861 -0.102772
0.0819391 -0.409177 0.0823549
0.0795965 -0.409179 0.0833573
0.0793349 -0.409227 0.0834491
-0.19911 0.324803 -0.00573768
-0.19806 0.325528 -0.0034747
-0.207897 0.319321 -0.0195407
-0.208618 0.318742 -0.0214112
-0.207792 0.314205 -0.0391768
0.244469 0.424103 0.00702866
0.243204 0.422387 7.78183e-05
0.242431 0.423395 -0.00285617
0.247147 0.421227 0.00646737
0.248625 0.420962 0.00690871
0.250109 0.420713 0.00731011
0.26511 -0.3132 0.0173225
0.263732 -0.313196 0.0173222
-0.21771 0.191527 -0.107063
0.4109 -0.149873 0.0739778
0.409673 -0.149673 0.073089
-0.170516 -0.397548 0.155575
-0.167374 -0.397381 0.155923
-0.16327 -0.389414 0.100008
-0.175356 -0.394822 0.111565
0.0980393 -0.40436 0.0589604
-0.213684 0.192148 -0.0415449
-0.216703 0.193129 -0.0433002
-0.221257 0.194383 -0.0460868
-0.223735 0.194785 -0.0485083
-0.227634 0.195012 -0.0538388
0.190647 -0.417903 0.0887911
0.189657 -0.417822 0.0904164
-0.202729 -0.236448 0.0427715
-0.201578 -0.236712 0.0440529
-0.207489 -0.235454 0.0378029
-0.208699 -0.235215 0.0365988
-0.214238 -0.234 0.030562
-0.215259 -0.233746 0.0293429
0.33523 0.115684 0.0468987
0.333843 0.115866 0.0477338
-0.151498 0.451241 0.0732533
-0.151535 0.451691 0.0742072
-0.152395 0.450153 0.0826868
-0.14616 0.405053 0.052475
-0.147163 0.404621 0.0513211
-0.14896 0.403758 0.048919
-0.149765 0.403317 0.0476867
-0.151239 0.40239 0.0452129
-0.15194 0.401901 0.0439936
-0.151544 0.452128 0.0751476
-0.159511 0.438423 0.0534313
-0.144295 0.450892 0.0751588
-0.131582 0.456881 0.0826828
-0.134664 0.453458 0.0765109
-0.146452 0.434053 0.0452332
-0.105612 0.396397 0.0373836
-0.0953184 0.406341 0.050409
-0.102189 0.400881 0.0413398
0.395001 0.2906 0.0641505
0.396041 0.291117 0.064711
0.397063 0.291652 0.0652642
0.39807 0.292209 0.0658061
0.399066 0.292786 0.0663329
-0.12665 0.440372 0.0500914
-0.127052 0.439933 0.0489181
-0.129578 0.435764 0.0398097
-0.125761 0.441158 0.0524821
-0.213501 0.153582 -0.09218
-0.238948 0.111325 0.011444
-0.24055 0.110607 0.0101662
-0.242607 0.109865 0.00770607
-0.245022 0.110114 0.00228507
