ply
format ascii 1.0
element vertex 1545
property float32 x
property float32 y
property float32 z
end_header
-0.0623133 -0.118343 -0.00373565
-0.05714 -0.119058 -0.000283934
0.124917 -0.120115 -0.0292145
0.125423 -0.121024 -0.0293716
-0.0633382 0.0750213 -0.00462635
-0.0620395 0.0748863 -0.00384981
-0.0577053 0.0745336 -0.00164304
-0.0597137 0.074696 -0.00243374
-0.059758 -0.0443723 0.000674894
-0.0577386 -0.0444448 0.000116498
-0.0242835 0.139041 -0.0168109
-0.0236417 0.138561 -0.0180994
-0.0229876 0.138071 -0.019415
-0.0602107 -0.115942 0.00262411
-0.0593162 -0.11703 0.00247773
0.13407 0.0353352 -0.0241673
0.132801 0.0349774 -0.025229
-0.0361668 -0.122907 -0.00051223
-0.0368222 -0.122074 0.00064902
-0.0374997 -0.121291 0.00180326
0.139591 -0.137881 -0.0138434
0.138694 -0.136824 -0.0136363
0.137766 -0.135813 -0.0134206
-0.0574776 0.0920067 -0.000891295
-0.0588568 0.0918785 -0.00154715
0.133727 0.0525344 -0.0251615
0.132163 0.0521879 -0.0267654
-0.0649635 0.00323157 0.0321001
-0.0653484 0.00351077 0.0336693
0.128973 0.122724 -0.0320979
0.127095 0.122673 -0.0320661
0.124805 0.122928 -0.0322372
-0.0724056 -0.0804105 0.0192287
-0.0723921 -0.0790015 0.0189666
-0.0722902 -0.0930493 0.0237906
-0.0722767 -0.0943284 0.0245079
-0.0725493 0.0212543 0.0240332
-0.0717975 0.0214088 0.0253562
0.113766 -0.0698575 -0.0240769
0.114073 -0.0699604 -0.0224428
0.120314 -0.0855936 -0.0277804
0.116684 -0.0855705 -0.0276392
0.114872 -0.0855726 -0.0275747
-0.0350637 -0.139628 -0.0133148
-0.0347862 -0.1383 -0.013982
-0.0344813 -0.136949 -0.0146333
-0.0341486 -0.135571 -0.0152631
0.114574 0.123144 -0.0199461
0.11459 0.121232 -0.0197856
0.114589 0.119318 -0.0196181
0.114565 0.117405 -0.0194398
0.121268 0.10008 -0.0281056
0.120897 0.100541 -0.0274348
-0.0523521 0.0197518 0.0035645
-0.0540843 0.0197675 0.00436979
-0.0717843 0.0080779 0.0087075
-0.0718735 0.00828187 0.0100558
-0.00612782 0.132659 -0.0244498
-0.00740427 0.132228 -0.0247313
0.0576197 -0.0865393 -0.0231618
0.059262 -0.0867562 -0.0220164
0.0609006 -0.086972 -0.0208684
0.0618737 -0.0869754 -0.0204094
0.0725046 -0.0864169 -0.0222679
0.0726097 -0.0859455 -0.0235087
-0.0468603 0.0609723 -0.0118471
0.040519 0.127717 -0.0236865
-0.0423988 -0.0268729 0.0322767
-0.0423655 -0.0258722 0.0327669
-0.0423469 -0.0248808 0.033287
-0.0427805 -0.0238745 0.0338707
-0.0714827 -0.0818349 0.00505184
-0.0721902 -0.0788881 0.00582414
-0.0724707 -0.0773238 0.00619794
-0.0725476 -0.0757024 0.00598217
0.0121553 0.118533 -0.0139829
0.138983 -0.135861 -0.0152958
0.138671 -0.134848 -0.015525
-0.0135154 -0.145638 0.0148587
-0.0152776 -0.145131 0.0152694
-0.0128524 -0.140152 0.0279234
-0.0131315 -0.141777 0.0305323
-0.0133071 -0.145078 0.0301616
-0.0165142 -0.145582 0.0180557
-0.0169991 -0.144926 0.0167347
-0.0656729 -0.12515 -0.0051798
-0.0640216 -0.125535 -0.00496187
-0.068528 -0.123973 -0.00594275
-0.0670646 -0.125116 -0.00537344
-0.065157 -0.125166 -0.00459036
-0.0569644 -0.126742 -0.00259895
-0.0579525 -0.127173 0.00188559
-0.0586303 -0.127347 0.00399172
-0.0498083 -0.126832 -0.000687023
-0.0514861 -0.127648 -0.000400735
-0.0600431 -0.124703 -0.00404258
-0.057313 -0.123471 -0.00385991
-0.0617834 -0.126011 -0.0048679
-0.0588508 -0.126605 -0.00464575
-0.0610645 -0.126073 -0.00453928
-0.0631342 -0.12565 -0.00491884
-0.057742 -0.126871 -0.00470108
-0.0594545 -0.124696 -0.00361919
-0.054795 -0.125377 -0.00341962
-0.068846 -0.125916 -0.00673189
-0.0668583 -0.126236 -0.00588813
-0.0685881 -0.128795 -0.00748779
-0.070655 -0.128939 -0.00609988
-0.0657922 -0.126251 -0.00556027
-0.0689224 -0.129104 -0.00709084
-0.0707571 -0.130837 -0.00584617
-0.0701171 -0.131599 -0.00570546
-0.0636792 -0.132763 0.000394713
-0.0637249 -0.132544 0.00129876
-0.0695753 -0.124533 -0.00597494
-0.0603362 -0.124583 -0.0041967
-0.0590859 -0.124575 -0.00411239
-0.0519891 -0.12535 -0.00295611
-0.0703373 -0.124621 -0.00607615
-0.0695352 -0.124952 -0.00469657
-0.0701953 -0.124853 -0.0042232
-0.0699003 -0.124572 -0.00614129
-0.0698276 -0.124594 -0.00613431
-0.055062 -0.127465 0.00433204
-0.054501 -0.127045 0.00290566
-0.0571115 -0.126935 7.92694e-05
-0.0586237 -0.127132 0.000276672
-0.0586455 -0.125775 -0.00320954
-0.0482397 -0.128394 0.00440309
-0.0605518 -0.125037 -0.00403943
-0.0545945 -0.125622 -0.00275422
-0.0499821 -0.127429 -0.00279166
-0.0613969 -0.124315 -0.00448614
-0.0604698 -0.124434 -0.00440657
-0.0548065 -0.123555 -0.00350251
-0.069036 -0.121773 -0.00578643
-0.0593515 -0.124258 -0.00409588
-0.0600553 -0.124155 -0.00408991
-0.0588189 -0.12403 -0.00376535
-0.0578059 -0.123357 -0.00370443
-0.0493334 -0.124202 -0.0023606
-0.0553541 -0.124574 -0.00361311
-0.0542585 -0.123501 -0.00376364
-0.0538244 -0.121969 -0.00316324
-0.0543149 -0.122638 -0.00345469
-0.0515674 -0.122852 -0.00259008
-0.0630475 -0.118036 -0.00465187
-0.052133 -0.125264 -0.00297131
-0.0579335 -0.125545 -0.00398001
-0.0601858 -0.12496 -0.00405001
-0.0609233 -0.125615 -0.00424441
-0.0590833 -0.124435 -0.00382827
-0.0601574 -0.118333 -0.00413622
-0.0604027 -0.118333 -0.00433666
-0.0629924 -0.120283 -0.00521804
-0.0592132 -0.123919 -0.00409058
-0.0688884 -0.120173 -0.00515438
-0.0691644 -0.117995 -0.00552499
-0.0694596 -0.122123 -0.00612488
-0.0684739 -0.121366 -0.00523239
-0.0682021 -0.12084 -0.0050711
-0.0671583 -0.120767 -0.00234192
-0.0596772 -0.120894 0.00175012
-0.0665235 -0.118014 -0.00222754
-0.0640187 -0.119948 0.000797037
-0.0657995 -0.122324 -0.00177583
-0.0604231 -0.12101 0.00149778
-0.0516879 -0.126 -0.00313804
-0.0460505 -0.128666 -0.00197433
-0.0450806 -0.129763 -0.00285147
-0.0434925 -0.130637 -0.00280511
-0.0465016 -0.128147 -0.00156696
-0.0269825 -0.132008 0.00985257
-0.0270236 -0.13186 0.0112053
-0.0445728 -0.12714 -0.000346777
-0.0437318 -0.127914 6.20963e-05
-0.0469888 -0.124212 -0.00248401
-0.0418416 -0.127844 -0.00282872
-0.0421813 -0.129195 -0.00251004
-0.0415851 -0.131772 -0.00321715
-0.0427129 -0.131944 -0.00552899
-0.0399346 -0.132268 -0.00541418
-0.035185 -0.13151 0.0113132
-0.0332858 -0.132193 0.0154952
-0.069915 -0.124576 -0.00617558
-0.0562568 -0.117214 0.0024153
-0.055723 -0.116153 0.00392479
-0.054474 -0.115413 0.00514702
-0.0592685 -0.124037 0.00365987
-0.0587791 -0.124735 0.00390964
-0.0591302 -0.125302 0.00379912
-0.0664761 -0.116314 -0.00400002
-0.065583 -0.11426 -0.000860763
-0.0624842 -0.119679 -0.00428582
-0.065012 -0.12336 -0.00505146
-0.0593557 -0.121513 -0.00423671
-0.0447098 0.147415 0.0322623
-0.0548326 0.145666 0.0274894
-0.0421346 0.146773 0.0329506
-0.038263 0.146407 0.0333892
-0.0196862 0.14874 0.0350026
-0.0285387 0.14801 0.0343306
-0.0312725 0.147668 0.0340744
-0.0495401 0.145795 0.0300973
-0.0418385 0.146363 0.0319258
-0.0475147 0.146481 0.0309453
-0.0510401 0.147249 0.0303819
-0.0364623 0.153899 0.0336349
-0.0187859 0.14878 0.0350797
-0.0205856 0.148697 0.0349266
-0.0214823 0.148648 0.0348529
-0.0234891 0.1485 0.0345603
-0.0250348 0.148393 0.0345731
-0.0571679 0.146555 0.0267828
-0.0561235 0.146945 0.0278808
-0.048118 0.151699 0.0282814
-0.0507368 0.146668 0.0305621
-0.0522917 0.144927 0.03039
-0.0519101 0.143149 0.0309886
-0.0532766 0.144043 0.0300519
-0.0526557 0.148223 0.0287957
-0.0456229 0.148219 0.0323516
-0.0473795 0.148269 0.0317337
-0.0542052 0.147557 0.0287547
-0.0511197 0.147969 0.0300726
-0.050377 0.147852 0.0301681
-0.0487605 0.147145 0.0307438
-0.0479613 0.148276 0.031523
-0.0490777 0.150788 0.0285353
-0.0504321 0.146082 0.0307415
-0.0480489 0.146818 0.0310135
-0.0510824 0.145323 0.0306972
-0.0546493 0.142876 0.0295377
-0.0548029 0.142388 0.0295369
-0.0557506 0.141998 0.0289452
-0.0402052 0.142351 0.0307012
-0.0408738 0.142793 0.0313042
-0.0450083 0.143307 0.0318709
-0.0381488 0.143281 0.0303971
-0.0388066 0.143813 0.0296617
-0.0402604 0.144488 0.027866
-0.0673429 -0.128683 0.0288918
-0.0670121 -0.128277 0.0309254
-0.065806 -0.128528 0.0344302
-0.0670244 -0.125424 0.032087
-0.0667339 -0.126117 0.0326578
-0.0670166 -0.127338 0.0315701
-0.0670799 -0.127138 0.0316293
-0.0590123 -0.129491 0.00403688
-0.058411 -0.130755 0.00410273
-0.0570687 -0.131974 0.00437552
-0.0591885 -0.132426 0.00347899
-0.0591452 -0.128871 0.00410993
-0.0592144 -0.128274 0.00421269
-0.0646218 -0.131825 0.00249359
-0.0595591 -0.128642 0.00399059
-0.047312 0.145617 -0.0151646
-0.0466443 0.146153 -0.0142827
-0.0459766 0.146677 -0.0133995
-0.0453085 0.147178 -0.0125162
-0.0551196 0.139825 -0.0175613
-0.055214 0.139653 -0.0170461
-0.0512469 0.139857 -0.0163674
-0.0455891 0.141341 -0.0149456
-0.0667889 -0.123805 0.0365584
-0.0674224 -0.121578 0.0353641
-0.0670468 -0.125401 0.0311642
-0.061543 -0.126551 0.0316748
-0.0665497 -0.124612 0.0351692
-0.0678089 -0.12428 0.0301789
-0.0676018 -0.124918 0.0299084
-0.0365467 -0.122954 0.0070119
-0.0350498 -0.124151 0.00826358
-0.0343165 -0.125327 0.00914769
-0.0320751 -0.126614 0.010792
-0.0305954 -0.127891 0.0120536
-0.0291201 -0.129204 0.0133041
-0.0271431 -0.130484 0.0165471
0.00279643 -0.128006 0.0290536
0.000956062 -0.128069 0.0281542
-0.000918847 -0.128117 0.0272968
-0.00282472 -0.128144 0.0264804
-0.00475688 -0.128144 0.0257034
-0.00670905 -0.128109 0.0249632
-0.00867438 -0.128035 0.0242561
-0.0106449 -0.127918 0.023578
-0.0126117 -0.127758 0.0229236
-0.014566 -0.127555 0.0222877
-0.0164817 -0.127279 0.0216786
-0.0183539 -0.126948 0.0210807
-0.0202902 -0.12654 0.0202273
-0.0278413 -0.124309 0.0171879
-0.030612 -0.12342 0.0157747
-0.0318732 -0.123589 0.0154612
-0.0278477 -0.130527 0.0164669
-0.0295148 -0.130624 0.0162459
-0.0427641 -0.120364 0.00186233
-0.0375238 -0.120968 0.0138344
-0.0351638 -0.124149 0.0195423
-0.0285357 -0.128373 0.0185154
-0.0592759 -0.128928 0.030226
-0.0683486 -0.127237 0.0192997
-0.0629624 -0.12605 0.0261848
-0.0558096 -0.130019 0.0296077
-0.0493061 -0.130711 0.0319715
-0.0476143 -0.130961 0.0322075
-0.0453983 -0.131897 0.0324456
-0.0690122 -0.126766 0.0243947
-0.0620146 -0.125827 0.0268281
-0.0690703 -0.12671 0.0244671
-0.0657279 -0.124325 0.025482
-0.0559289 -0.11713 0.0358135
-0.0544458 -0.117158 0.0373065
-0.0522078 -0.117806 0.037564
-0.0714202 -0.115386 0.0236333
-0.0677962 -0.115653 0.0257067
-0.0406345 -0.121928 0.019095
-0.040059 -0.121876 0.0167852
-0.052913 -0.130606 0.0315842
-0.0553286 -0.130571 0.0316823
-0.057443 -0.129924 0.0312179
-0.0582601 -0.129019 0.030196
-0.0600089 -0.128882 0.0329885
-0.0554793 -0.130708 0.0332767
-0.0392769 -0.132047 0.040663
-0.0410594 -0.131608 0.0401692
-0.0427655 -0.13149 0.0398064
-0.0445824 -0.130406 0.0395306
-0.0384687 -0.127416 0.0412611
-0.0379768 -0.128943 0.0414529
-0.0370412 -0.129548 0.0421482
-0.0291143 -0.132325 0.048253
-0.0290015 -0.132097 0.0491043
-0.0281054 -0.131985 0.0405416
-0.0319923 -0.133423 0.0428312
-0.0303351 -0.131501 0.0387811
-0.031462 -0.131361 0.0379204
-0.0317929 -0.130154 0.0373857
-0.0299679 -0.128534 0.0351478
-0.0347823 -0.127268 0.0312915
-0.0354217 -0.126516 0.0309049
-0.036099 -0.125782 0.0305668
-0.0368285 -0.12508 0.0302968
-0.0421898 -0.121801 0.0301027
-0.0454722 -0.121101 0.0308929
-0.0465837 -0.120924 0.0311704
-0.0493939 -0.121484 0.031116
-0.049355 -0.12294 0.0314114
-0.0596954 -0.124742 0.0277094
-0.0427014 -0.130662 0.037559
-0.0443734 -0.130235 0.0386169
-0.0492906 -0.128373 0.0408736
-0.0620725 -0.133108 0.00371618
-0.0626721 -0.134352 0.00318744
-0.0625448 -0.134591 0.00794509
-0.0623106 -0.134667 0.0104229
-0.071352 0.140194 0.000449072
-0.0710051 0.141243 0.00216701
-0.0714233 0.134394 0.00864364
-0.0710027 0.135385 0.00924272
-0.0701173 0.137296 0.00976849
-0.0688429 0.136647 0.0140716
-0.0701452 0.138294 0.00823537
-0.0693449 0.137778 0.0109122
-0.0689583 0.137381 0.0129885
-0.0714854 0.13977 0.00549733
-0.0698237 0.138082 0.00461935
-0.0691335 0.138074 0.00424002
-0.0647538 0.136353 -0.000962772
-0.0654678 0.130721 0.00252075
-0.0646421 0.135584 0.00571157
-0.0642525 0.135168 0.00609579
-0.0644796 0.137379 -0.000622639
-0.0610363 0.137943 0.000353506
-0.0610018 0.139215 0.00848585
-0.0616281 0.140334 0.0180284
-0.0631252 0.139341 0.0214185
-0.0601992 0.137225 -0.0051589
-0.0604364 0.138251 -0.00278376
-0.0564971 0.131648 0.0079418
-0.0579334 0.13374 0.00949755
-0.0597747 0.134603 0.00048303
-0.0586679 0.134842 0.00988516
-0.0603963 0.137248 -0.00361147
-0.0603911 0.13824 -0.00193471
-0.0603947 0.137625 -0.000127631
-0.0604365 0.137409 -0.00271649
-0.0598979 0.136826 -0.000637773
-0.0603179 0.136091 -0.00525871
-0.0604217 0.137241 -0.0032184
-0.0600184 0.13662 -0.00163302
-0.0605495 0.136882 -0.00152605
-0.060461 0.137875 0.00152991
-0.0601212 0.137377 0.00350148
-0.0611075 0.137709 0.00684457
-0.0609016 0.137433 0.00857707
-0.0607335 0.137316 0.00689017
-0.0255746 -0.141843 0.00546509
-0.0142258 -0.142956 0.0166452
-0.0114241 -0.139083 0.0236478
-0.0111214 -0.138859 0.0225804
-0.011484 -0.13845 0.0184417
-0.0151387 -0.137985 0.0182622
-0.0160298 -0.137774 0.018914
-0.0199402 -0.137086 0.0202717
-0.0204355 -0.136506 0.0223681
-0.0212984 -0.136169 0.0231204
-0.0221573 -0.135807 0.023891
-0.0201406 -0.134846 0.0143261
-0.0248538 0.141104 -0.0108212
-0.0237891 0.141269 -0.00961776
-0.022728 0.141427 -0.00840138
-0.0185023 0.14127 -0.00712575
-0.0201254 0.142053 -0.00705104
-0.0224329 0.137933 -0.00723979
-0.0231344 0.137575 -0.00614548
-0.0238505 0.13725 -0.00504195
-0.0104991 0.145305 0.00801146
-0.0463873 -0.128759 0.0404789
-0.0469071 -0.127897 0.0410391
-0.0400738 -0.125737 0.0404548
-0.039932 -0.125398 0.0405707
-0.0406783 -0.124443 0.0402778
-0.0648195 -0.125515 0.0403127
-0.064836 -0.126206 0.039295
-0.0653961 -0.125348 0.0358487
-0.0640924 -0.125487 0.0357081
-0.0590775 -0.125823 0.0353995
-0.0646885 -0.125376 0.0413542
-0.0651371 -0.12575 0.0379479
-0.0653338 -0.125067 0.0328386
-0.0645405 -0.125488 0.0417175
-0.0650142 -0.125289 0.040471
-0.0581094 -0.12639 0.0355248
-0.0632591 -0.126205 0.0345128
-0.0656381 -0.1267 0.0339289
-0.06397 -0.126554 0.0356519
-0.0626294 -0.126645 0.0338672
-0.0710291 -0.113677 0.000182735
-0.0687804 -0.113499 0.000895359
-0.060408 -0.130244 -0.000884128
-0.0642987 -0.133593 -0.00497318
-0.0629384 -0.13449 -0.00497877
-0.0604123 -0.136446 -0.00289629
-0.0591542 -0.137373 -0.00185771
-0.0579025 -0.138273 -0.000825752
-0.0560377 -0.139165 0.000287988
-0.0611924 -0.131065 -0.0053783
-0.0600772 -0.131522 -0.000767486
-0.0636668 -0.131067 -0.00713999
-0.0638314 -0.126072 -0.00514065
-0.057423 -0.126739 -0.00269712
-0.0596132 -0.12737 0.000515464
-0.0579422 -0.127101 0.00288825
-0.043549 0.150331 0.0102988
-0.0358817 0.151894 0.0126411
-0.0603534 -0.127676 0.02624
-0.0582504 -0.128574 0.0259413
-0.054973 -0.129837 0.0255559
-0.0538472 -0.130234 0.025454
-0.0359897 0.146693 0.0342689
-0.0381254 0.155731 0.0314146
-0.0409014 0.156141 0.0298792
-0.0392376 0.151258 0.0336016
-0.0382042 0.152871 0.0330574
-0.0365751 0.155007 0.0317282
-0.0457458 0.14779 0.0315565
-0.0395077 0.146016 0.0336417
-0.0428755 0.157567 0.0233431
-0.0442664 0.156869 0.0244157
-0.0500186 0.155858 0.023781
-0.0496257 0.156068 0.0241162
-0.049229 0.156272 0.0244517
-0.0430373 0.156683 0.0272102
-0.0419006 0.157529 0.0271834
-0.0422371 0.158646 0.0270422
-0.0395314 0.158977 0.0272825
-0.0383069 0.159579 0.0274051
-0.0370616 0.160103 0.0275782
-0.0359768 0.156887 0.0251166
-0.0344686 0.156889 0.0259905
-0.0329562 0.156884 0.0268489
-0.0314369 0.156866 0.0276854
-0.0299086 0.156829 0.0284935
-0.0283689 0.156766 0.0292694
-0.0252401 0.156534 0.0306988
-0.0236549 0.156379 0.0313656
-0.0366694 0.155315 0.0216213
-0.036743 0.154067 0.0200509
-0.0368164 0.15284 0.0184817
-0.0332267 0.161128 0.0284702
-0.0319456 0.161393 0.028822
-0.0331064 0.160691 0.0293192
-0.03643 0.156795 0.0314851
-0.0356391 0.156218 0.0317299
-0.0362041 0.155689 0.031771
-0.036931 0.155655 0.0317212
-0.0276971 0.15739 0.0326008
-0.0400941 0.149935 0.0340594
-0.0485423 0.148281 0.0313113
-0.0258407 0.146522 0.0339055
-0.0241546 0.14847 0.0346399
-0.016768 0.14895 0.035647
-0.0246093 0.14849 0.0344385
-0.0246644 0.149012 0.0350632
-0.0218736 0.151636 0.0385583
-0.0234268 0.150925 0.0377211
-0.0273152 0.151485 0.0384771
-0.0262298 0.152436 0.0399473
-0.0173017 0.148508 0.0352935
-0.0165926 0.146646 0.0349923
-0.0164717 0.145329 0.034599
-0.0162794 0.153836 0.0407523
-0.0216987 0.154185 0.0406709
-0.0228922 0.153188 0.0400596
-0.0179166 0.153222 0.0394309
-0.00971106 0.153775 0.0374547
-0.0088058 0.153958 0.0374654
-0.0164732 0.153427 0.0277208
-0.0227495 0.151885 0.0250236
-0.0182106 0.152582 0.0269191
-0.0642806 -0.0142521 0.035291
-0.0646745 -0.0144609 0.0340491
-0.0701404 -0.125838 -0.00607593
-0.0636544 -0.125468 -0.00446477
-0.0699498 -0.124769 -0.00476283
-0.0601505 -0.126707 0.000929255
-0.0612715 -0.129639 0.00595602
-0.0345419 -0.121835 0.0170354
-0.0342894 -0.121998 0.0182769
-0.0350765 -0.122181 0.018122
-0.0356743 -0.122457 0.0187314
-0.0508299 -0.121819 -0.00260904
-0.066129 -0.11994 -0.000544411
-0.0685292 -0.121193 -0.00503648
-0.0403309 -0.104307 0.00905748
-0.039155 -0.1043 0.00841834
-0.037999 -0.10429 0.00777238
-0.0357377 -0.104269 0.00646331
-0.0607043 -0.126123 0.0281172
-0.0607874 0.136068 0.0182687
-0.0628889 0.136361 0.0161145
-0.0604957 0.135716 0.0120562
-0.0604099 0.131307 0.00787688
-0.0592793 0.131433 0.00778988
-0.0631797 0.140026 0.0210195
-0.0664808 0.138806 0.0176502
-0.0674487 0.138917 0.0156472
-0.0658777 0.139677 0.0181441
-0.0602787 0.138819 -0.00263381
-0.0612993 0.139407 0.000366757
-0.061937 0.138135 0.000444106
-0.0603266 0.139055 0.00404782
-0.0218606 -0.126136 0.0198679
-0.024992 -0.125218 0.0185726
-0.0264339 -0.124761 0.0178861
-0.0341955 -0.124209 0.0100688
-0.0439662 -0.121203 0.0136042
-0.044587 -0.121233 0.0133493
-0.0472079 -0.121958 0.00975393
-0.0470879 -0.121899 0.01213
-0.0485688 -0.121652 0.0116378
-0.0500275 -0.121821 0.0110226
-0.0252875 -0.12496 0.0181669
-0.0325944 -0.122581 0.0162554
-0.0354196 -0.122223 0.0175981
-0.0418872 -0.122055 0.0172298
-0.044304 -0.121678 0.0187029
-0.0657851 -0.118093 0.00736376
-0.0405426 0.130034 -0.00766627
-0.0718117 -0.0185368 0.00254373
-0.0718634 -0.0183693 0.0034934
-0.0436124 0.140259 0.032868
-0.0347598 0.140487 0.0336604
-0.046702 0.139669 0.0318995
-0.0436848 0.140961 0.0329058
-0.0361234 0.141607 0.0323998
-0.0328302 0.140362 0.0327473
-0.0331208 0.142592 0.0314119
-0.0336133 0.143587 0.0309472
-0.0308327 0.138534 0.0327011
-0.0327622 0.138142 0.0314368
-0.0320187 0.138977 0.0326579
-0.0319215 0.14014 0.0327677
-0.0336134 0.140051 0.0328867
-0.0350718 0.140769 0.0335632
-0.0402171 0.135922 0.026815
-0.0374732 0.136448 0.0278459
-0.0360551 0.136791 0.0284489
-0.0252274 0.138646 0.029418
-0.0504516 0.134533 0.0230203
-0.0471998 0.135027 0.0244677
-0.0532155 0.149409 0.0119494
-0.0507616 0.149629 0.0124409
-0.0503624 0.149604 0.0124692
-0.0463767 0.150021 0.013448
-0.0453565 0.150113 0.0137372
-0.0437407 0.150984 0.0141804
-0.0365314 0.151426 0.0145985
-0.0523392 0.149663 0.0120859
-0.0493593 0.149765 0.0128183
-0.0474478 0.149924 0.0131899
-0.0422291 0.15064 0.0146897
-0.04343 0.150257 0.0145123
-0.0273992 0.138589 0.017549
-0.0275413 0.139103 0.019332
-0.0276547 0.139695 0.021075
-0.0275882 0.138125 0.0158202
-0.0300737 0.137709 0.0169044
0.139049 -0.0976236 -0.0244894
0.137907 -0.0972409 -0.0260021
-0.0706852 -0.114553 -0.00448859
-0.0711495 -0.115317 -0.00563643
-0.0693292 -0.115081 -0.0050509
-0.0645593 -0.116957 -0.00417507
-0.0624896 -0.118844 -0.00468067
-0.0703601 -0.115941 -0.0049792
-0.0703065 -0.116461 -0.00516675
-0.0613925 -0.126679 0.000399631
-0.0137223 -0.134328 0.00196481
-0.0584409 -0.126217 -0.00288635
-0.0600349 0.138438 -0.00841252
-0.0604809 0.139552 -0.00988876
-0.0579697 0.140981 -0.0131257
-0.0570989 0.140443 -0.0144372
-0.0562323 0.139935 -0.0157536
-0.0543747 0.140889 -0.0173647
-0.0600577 0.139086 -0.00847145
-0.0598989 0.140343 -0.00835339
-0.0603154 0.1352 -0.00852143
-0.0600783 0.137716 -0.00436748
-0.0604258 0.138307 -0.00207167
-0.0603374 0.138369 -0.00186106
-0.0604685 0.13777 0.000247067
-0.0602555 0.137649 -0.00458798
-0.0603659 0.137116 -0.00500989
-0.0605856 0.138106 -0.000146211
-0.0603935 0.138426 -0.00302133
-0.0604065 0.137141 -0.00378421
-0.06275 0.134128 0.00682195
-0.0609037 0.131521 0.00868196
-0.0602383 0.145568 0.0233318
-0.0613941 0.145126 0.0217752
-0.0634028 0.143159 0.0205472
-0.0643585 0.141936 0.0194322
-0.0648786 0.14114 0.0189852
-0.0602278 0.144033 0.0273147
-0.0604885 0.14184 0.0259558
-0.0601501 0.14467 0.027713
-0.0584628 0.146164 0.0255698
-0.0578285 0.146356 0.0262097
-0.0658034 -0.13474 0.00308983
-0.0703953 -0.124659 -0.00641217
-0.0630803 -0.12636 -0.00386139
-0.0610814 -0.128048 -0.000144478
-0.0599943 -0.128358 0.00301979
-0.0567267 -0.128446 0.00485266
-0.0585356 -0.128664 0.00441942
-0.068952 -0.127056 0.0244207
-0.0690501 -0.126683 0.0246572
-0.0717377 -0.125268 0.0135085
-0.0629555 -0.126351 0.026153
-0.0613965 -0.127218 0.0263922
-0.0598509 -0.127679 0.0292465
-0.0321239 -0.12888 0.0184822
-0.0315606 -0.129843 0.0162906
-0.0638951 0.064145 -0.00420343
-0.0628987 0.064093 -0.0054249
-0.0630352 0.0650709 -0.00415923
-0.0633626 0.0661033 -0.00414916
-0.0583971 0.0757439 0.00763294
-0.0588166 0.0762703 0.00841983
-0.0576643 0.0753937 0.0105858
-0.0562746 0.139562 0.0294604
-0.0568352 0.141337 0.0281507
-0.0564627 0.139007 0.0287202
-0.0600948 0.140637 0.0256412
-0.0585131 0.141246 0.0282853
-0.0648064 -0.114493 0.000433067
-0.0659272 -0.115941 -0.00317948
-0.0603226 -0.119411 -0.00442261
-0.0533414 -0.11628 -0.00284174
-0.052407 -0.115946 -0.00285196
-0.0490471 -0.114598 -0.00234366
-0.0508948 -0.12155 -0.00241718
-0.0564575 -0.122646 -0.00396481
-0.0600725 -0.121134 -0.00437031
-0.0698682 -0.117233 -0.00609234
-0.0702213 -0.117999 -0.00567811
-0.0642454 -0.119945 -0.00491965
-0.0691234 -0.121757 -0.00582897
-0.0699958 -0.123689 -0.00629631
-0.0636268 -0.118184 -0.00480306
-0.0634647 -0.118431 -0.00482289
-0.069097 -0.117194 -0.00553973
-0.0699762 -0.117972 -0.00592974
-0.0704486 -0.11822 -0.00533379
-0.0585292 -0.123151 -0.00388121
-0.0692202 -0.121635 -0.00566146
-0.0695178 -0.123514 -0.00410508
-0.0705458 -0.124461 -0.0029215
-0.0708245 -0.125052 -0.000930142
-0.0626362 -0.122388 -0.00461575
-0.0662788 -0.117867 -0.00481752
-0.0704607 -0.115053 -0.00322403
-0.0694919 -0.113647 -0.00195555
-0.0509868 0.134305 0.0219912
-0.0460489 0.134955 0.0245131
-0.0543184 0.133705 0.0205834
-0.0530836 0.133986 0.0214109
-0.0511399 0.134399 0.0226271
-0.0481281 0.134913 0.0241308
-0.0676861 0.129351 0.0139297
-0.0685495 0.13014 0.0119845
-0.0513883 0.131437 0.0202245
-0.0518915 0.13074 0.019648
-0.0523596 0.130344 0.0190733
-0.0421329 0.13028 0.0237472
-0.0354289 0.133928 0.0256213
-0.0371807 0.133621 0.0250221
-0.0582792 0.130003 0.0122961
-0.065243 0.0216524 0.0207794
-0.0666545 0.0216859 0.020993
-0.0707733 0.0216696 0.0215729
-0.0721195 0.0216356 0.0217532
-0.0607358 0.0286554 0.0209264
-0.0611221 0.028753 0.0201727
-0.0572545 0.0373095 0.0241261
-0.0563078 0.0391492 0.025593
-0.0703379 -0.123628 0.0230032
-0.0697091 -0.123627 0.0229408
-0.0688833 -0.123563 0.0226223
-0.0623786 -0.122789 0.0270645
-0.0662314 -0.130454 0.0314219
-0.065157 -0.132741 0.0315103
-0.0502417 -0.134441 -0.00871525
-0.0528178 -0.133814 -0.00819303
-0.054692 -0.135482 -0.0108675
-0.0470858 -0.128003 0.002562
-0.0479931 -0.127194 2.41291e-05
-0.0509558 -0.130546 0.00472952
-0.0479858 -0.132473 0.00627863
-0.051782 -0.132834 0.00515363
-0.0537824 -0.13341 0.00361171
-0.0427979 0.142541 -0.00877833
-0.0414803 0.143419 -0.00883351
-0.0297855 0.143924 -0.00755384
-0.0303508 0.141565 -0.00800551
-0.0312398 0.139494 -0.0069348
-0.0473504 0.141349 -0.00985302
-0.0512543 0.141988 -0.0108354
-0.0541393 0.142289 -0.0115552
-0.0434923 0.148204 -0.00991354
-0.044831 0.147091 -0.00992585
-0.0484831 0.145813 -0.0100178
-0.0494084 0.146337 -0.0105446
-0.0490928 0.146317 -0.0101734
-0.0477385 0.146416 -0.00955695
-0.0479894 0.14476 -0.00976708
-0.0633766 0.143117 -0.0145815
-0.0410947 0.147835 -0.00927402
-0.0410379 0.146687 -0.00909292
-0.0384856 0.145671 -0.00928787
-0.0519539 0.14297 -0.0108994
-0.0573109 0.141798 -0.0124524
-0.0485276 0.146367 -0.0095351
-0.055722 0.14607 -0.0115408
-0.0600882 0.145974 -0.0107619
-0.0615869 0.146793 -0.0106383
-0.0591047 0.139722 -0.0130443
-0.0619048 0.141467 -0.0136951
-0.0639415 0.142334 -0.0151169
-0.0664464 0.139867 -0.0150123
-0.0619217 0.146856 -0.00959483
-0.058737 0.149211 -0.00803231
-0.0618076 0.146423 -0.0114496
-0.0615356 0.146046 -0.0129071
-0.0612584 0.145656 -0.0143686
-0.0467815 0.129073 -0.0116397
-0.0448719 0.128779 -0.0125785
-0.0393663 0.130186 -0.00767491
-0.0395248 0.130109 -0.00601475
-0.0397654 0.130806 -0.00407035
-0.0497374 -0.119929 0.015465
-0.0577788 -0.118356 0.011601
-0.0567147 -0.119715 0.0123296
-0.0593672 -0.117676 0.00991343
-0.0604466 -0.117104 0.00867778
-0.0646837 -0.118852 0.00415886
-0.0410483 -0.12271 0.0177269
-0.0465281 -0.120904 0.0167194
-0.047643 -0.12061 0.0164064
-0.0487697 -0.120306 0.0160901
-0.0533949 -0.119063 0.0148501
-0.0547462 -0.118666 0.0142986
-0.0558321 -0.118438 0.0142836
-0.0577907 -0.118092 0.0139053
-0.059756 -0.118129 0.0140977
-0.0407845 -0.121882 0.018265
-0.0451328 -0.121614 0.0204918
-0.05835 -0.117793 0.0150782
-0.0705154 -0.116888 0.0109179
-0.0709572 -0.118405 0.0102141
-0.0713967 -0.119859 0.0102601
-0.0717991 -0.121332 0.0102893
-0.0445699 0.134258 -0.0188996
-0.0455972 0.134584 -0.0192363
-0.0466276 0.134912 -0.0195566
-0.0476621 0.135241 -0.019852
-0.0497404 0.135864 -0.0203232
-0.0390864 0.135537 -0.0148298
-0.0444375 0.13526 -0.015753
-0.0452483 0.135749 -0.0151872
-0.0462501 0.137898 -0.0150505
-0.0507802 0.136148 -0.0205122
-0.048893 0.135411 -0.0201603
-0.0489124 0.137231 -0.0210667
-0.0420529 0.135451 -0.0144882
-0.0489699 0.134619 -0.0158668
-0.0494735 0.135824 -0.0158417
-0.0558233 0.133617 -0.0172854
-0.0597998 0.132919 -0.0182506
-0.0577965 0.13147 -0.0174338
-0.045928 0.1393 -0.0164051
-0.0447241 0.138767 -0.0178021
-0.0435308 0.138228 -0.0191838
-0.0384515 0.141534 -0.0201932
-0.0394751 0.139551 -0.0197076
-0.055241 0.131971 0.0171849
-0.0534477 0.133448 0.0197584
-0.0516527 0.133457 0.0190268
-0.049739 0.13385 0.0222398
-0.0582647 0.132487 0.0177326
-0.0681633 0.138575 -0.0146368
-0.067033 0.138368 -0.0128858
-0.0660101 0.136715 -0.0118888
-0.0716416 0.137253 -0.00968283
-0.0721329 0.135541 -0.00537004
-0.0721309 0.136571 -0.0045447
-0.0719864 0.137049 -0.00373889
-0.0714191 0.139907 -0.000523662
-0.0715098 0.139631 -0.000402154
-0.0711795 0.140722 0.00130725
-0.0706051 0.140449 0.00419912
-0.0712642 0.141247 0.0058411
-0.0707158 0.140645 -0.00128968
-0.0552866 0.139542 -0.01703
-0.0594618 0.136862 -0.0194416
-0.0575381 0.139076 -0.0176037
-0.0555885 0.13993 -0.0173212
-0.0565563 -0.131758 0.0464948
-0.0563464 -0.133352 0.0474425
-0.059736 -0.132481 0.0426815
-0.062178 -0.131663 0.0399856
-0.0622826 -0.131815 0.0385424
-0.0561071 -0.131105 0.0465053
-0.0531851 -0.132035 0.0476603
-0.0655983 -0.141644 0.00845261
-0.0652564 -0.142114 0.00936342
-0.0644889 -0.142066 0.0106691
-0.0362849 0.135109 0.0130145
-0.0379114 0.134698 0.00997643
-0.0479877 0.1319 0.00773715
-0.0471021 0.132111 0.00720619
-0.0459927 0.132355 0.00619157
-0.0522778 0.140596 0.00482609
-0.053803 0.140123 0.00475421
-0.0556042 0.139161 0.00531238
-0.05689 0.139011 0.00465927
-0.0395079 0.142945 0.00654712
-0.0453042 0.141943 0.00551837
-0.0422973 0.14248 0.00611532
-0.0450933 0.14201 0.00569082
-0.0479082 0.141526 0.00528321
-0.0362737 0.151582 0.00996428
-0.0688817 -0.12597 0.025775
-0.0667374 -0.125759 0.0325815
-0.0671794 -0.126192 0.0314367
-0.0713397 -0.125221 0.0211185
-0.0723484 -0.126625 0.0171088
-0.0717521 -0.127493 0.0179243
-0.0718465 -0.128219 0.0168463
-0.0719249 -0.128931 0.015763
-0.0719817 -0.129625 0.0146721
-0.0720115 -0.130287 0.0135712
-0.0657203 -0.118752 0.0371467
-0.062393 -0.118365 0.0371958
-0.0614998 -0.118131 0.0380362
-0.0597138 -0.118081 0.0385762
-0.046474 -0.119279 0.0389239
-0.0455812 -0.119816 0.0390765
-0.0447068 -0.120422 0.03923
-0.0605929 -0.117907 0.0388484
-0.0501749 -0.117762 0.0381546
-0.0517734 -0.118081 0.0357861
-0.0569112 -0.117271 0.035091
-0.0573546 -0.117553 0.0346192
-0.0595935 -0.117922 0.0327748
-0.0599074 -0.118044 0.0324738
-0.060923 -0.118404 0.0315
-0.0619438 -0.118793 0.0305071
-0.0660643 -0.120721 0.0264358
-0.0665397 -0.120713 0.0257518
-0.0681178 -0.121183 0.0241657
-0.0702261 -0.122998 0.0231351
-0.0691309 -0.122403 0.0233602
-0.0679454 -0.123817 0.0232921
-0.0475695 -0.127206 0.0422106
-0.0504075 -0.11459 0.000462005
-0.0496884 -0.114541 -0.000810367
-0.0452929 -0.118376 -0.000668864
-0.0456454 -0.119717 -0.000754083
-0.0688729 -0.126418 0.0249868
-0.0714879 -0.125985 0.020057
-0.067216 -0.125713 0.0313153
-0.0696549 -0.124079 0.0237604
-0.0675784 -0.139103 0.0107857
-0.0671057 -0.139719 0.00947879
-0.0668125 -0.140071 0.0081832
-0.0665445 -0.140302 0.00624253
-0.0677039 -0.13889 0.0115638
-0.0670377 -0.137885 0.00845589
-0.0665546 -0.136851 0.00656529
-0.0660751 -0.135831 0.00467652
0.122673 0.0683506 -0.0295941
0.124581 0.0681668 -0.029169
0.126412 0.067787 -0.0289088
0.128282 0.0672912 -0.0286329
-0.0601082 -0.0894062 -0.000291345
-0.0530852 -0.0890091 0.00198591
-0.0561648 -0.0891261 -0.00184477
-0.0582099 -0.0892729 -0.0010666
-0.0584233 -0.0893389 0.0013314
-0.0566914 -0.0562568 0.00113814
-0.0582525 -0.0561445 0.0010092
-0.0610621 -0.0557096 0.00494987
0.13887 -0.122177 -0.0252125
0.13927 -0.123349 -0.0248723
0.139674 -0.124497 -0.0245239
-0.0534032 0.019051 -0.00452064
-0.0531805 0.0188877 -0.0062954
-0.0388222 0.145835 0.0345572
-0.0424031 0.14477 0.0333247
-0.0430469 0.144656 0.0330701
-0.040603 -0.12558 0.0264426
-0.0408771 -0.126866 0.0260983
-0.0416783 -0.130734 0.0249136
-0.0437587 -0.132978 0.025221
-0.0576804 0.150216 -0.0075017
-0.0578385 0.1497 -0.00736302
-0.0616322 0.147246 -0.00925002
-0.0443027 0.153464 -0.00138246
-0.0420783 0.153977 -0.000311404
-0.0547242 0.15164 -0.00719001
-0.0571393 0.149552 -0.00640487
-0.0455122 0.154473 -0.00176663
-0.045845 0.155776 -0.00181731
-0.046174 0.157086 -0.00186696
-0.05423 -0.126814 0.0438701
-0.0556144 -0.127016 0.0447788
-0.0513127 -0.131083 0.0475555
-0.0496908 -0.127526 0.0452961
-0.0523977 -0.12709 0.043876
-0.0483465 -0.128205 0.0453827
-0.0442781 -0.128324 0.0468099
-0.038423 -0.129346 0.0484584
-0.0388589 -0.130402 0.0476566
-0.043925 -0.127961 0.0452994
-0.0358743 -0.131715 0.0470471
-0.0351188 -0.131533 0.0441133
-0.0583381 -0.133224 0.0388247
-0.0571111 -0.13349 0.0402628
-0.0548142 -0.133708 0.0399394
-0.0501864 -0.134615 0.0412147
-0.0485139 -0.134705 0.0415064
-0.0468527 -0.134792 0.041814
-0.0452004 -0.134869 0.0421359
-0.0433015 -0.135081 0.0425034
-0.040267 -0.135024 0.0431543
-0.0415579 -0.134969 0.0431077
-0.0353309 -0.135011 0.0442508
-0.0342824 -0.13423 0.0445884
-0.0319998 -0.134878 0.0450664
-0.0303241 -0.134842 0.0454918
-0.0291387 -0.133913 0.0458899
-0.0269639 -0.134906 0.0463759
-0.023608 -0.135189 0.0473317
-0.0219381 -0.135392 0.0478405
-0.0202746 -0.135624 0.0483683
-0.0645163 -0.132362 0.0384285
-0.0662734 -0.131875 0.0380786
-0.0672513 -0.13143 0.0378407
-0.0652892 -0.132312 0.0383142
-0.0633662 -0.131395 0.0384703
-0.0619716 -0.131962 0.0380462
-0.0599829 -0.132103 0.0393816
-0.0591543 -0.133162 0.0390222
-0.0566066 -0.133705 0.0419405
-0.058009 -0.132087 0.0393317
-0.048327 -0.131322 0.0446984
-0.0478365 -0.131386 0.0442988
-0.0366327 -0.131112 0.0477826
-0.0358698 -0.131311 0.0473294
-0.0601168 -0.117062 0.0214657
-0.0568097 -0.117999 0.025435
-0.0358631 0.152136 0.0102546
-0.0341123 0.152272 0.0101108
-0.0441228 0.150317 0.00609881
-0.0345262 0.152956 0.00828426
-0.0517552 0.149864 0.00281791
-0.0439073 0.150275 0.00938173
-0.0431892 0.150381 0.0112109
-0.0565687 0.140454 0.027759
-0.051661 0.139512 0.030288
-0.0705558 -0.115878 -0.00471461
-0.0702662 -0.117136 -0.00524785
-0.0452974 -0.104267 0.0114988
-0.0466016 -0.104231 0.0120708
-0.0492369 -0.104145 0.0131955
-0.0636224 -0.0599593 0.0353861
-0.0642503 -0.0590671 0.0343271
-0.0648619 -0.0581913 0.0332543
-0.0654133 -0.0569703 0.0322785
-0.0663432 -0.0563044 0.0307988
-0.0615968 -0.0627973 0.0384428
-0.0608245 -0.0638602 0.0393652
-0.060026 -0.0649564 0.0402572
-0.0588992 -0.0666684 0.0413527
-0.0443616 -0.05605 0.0431573
-0.0547723 -0.0529801 0.0378826
-0.0615368 -0.0530962 0.0341483
-0.0660932 -0.0527378 0.0305789
-0.0661241 -0.0514181 0.0306806
-0.0689775 -0.0559938 0.0255849
-0.0695506 -0.0562251 0.0245815
-0.0668632 -0.057095 0.0307574
-0.0671099 -0.0582604 0.0310132
-0.0673455 -0.0594232 0.0312586
-0.0529155 -0.134383 0.034272
-0.0533999 -0.134281 0.0349655
-0.0543516 -0.13408 0.0363231
-0.0557438 -0.133782 0.038308
-0.0546509 -0.133993 0.0382223
-0.0610276 -0.132418 0.0366926
-0.0556203 -0.134054 0.0315702
-0.0441642 -0.135585 0.0333165
-0.0435448 -0.136088 0.0335934
-0.0590563 0.138617 -0.0171617
-0.0525193 0.145629 -0.0152347
-0.0507843 0.138872 -0.0162681
-0.0537833 0.140295 -0.0154564
-0.0694641 0.127631 0.00353377
-0.0678635 0.1272 0.00181438
-0.0708289 0.127979 0.00878916
-0.0719005 0.127834 0.00624008
-0.0616836 0.135201 0.0120367
-0.0660235 0.13199 -0.0106004
-0.0653566 0.132074 -0.0104763
-0.0653398 0.132825 -0.00764063
-0.0470672 0.142814 0.0319342
-0.0459397 0.143596 0.0323342
-0.0458447 0.143683 0.0323743
-0.0456121 0.143879 0.0324545
-0.0549615 -0.127027 0.00478699
-0.0558956 -0.126937 0.00445346
-0.0523788 -0.126652 0.00549622
-0.0559662 -0.125465 0.0047086
-0.0512488 -0.125977 0.0057739
-0.0523667 -0.126342 0.00543912
-0.0574681 -0.125284 0.0040772
-0.0585865 -0.125006 0.00384512
-0.0585351 -0.12468 0.004472
-0.0544754 -0.124492 0.00707804
-0.0538134 -0.123718 0.00854536
0.139955 -0.12538 -0.0207839
0.140247 -0.126386 -0.0203868
0.137521 -0.123833 -0.0221404
0.139252 -0.123286 -0.0182635
0.136872 -0.124647 -0.0214003
0.136219 -0.125452 -0.0206521
0.134728 -0.126794 -0.0204146
-0.0361768 -0.131936 0.0507497
-0.0374813 -0.1332 0.0513219
-0.0387795 -0.134453 0.0518863
-0.0604977 0.138219 -0.000172819
-0.0603775 0.139201 0.00295952
-0.0600237 0.139695 0.00425578
-0.0601625 0.137466 -0.00488841
-0.0604024 0.138461 -0.00306493
-0.0606787 0.138508 -0.000653819
-0.0618141 0.143193 0.00212051
-0.0631888 0.144181 0.00714419
-0.0629808 0.14556 0.00632849
-0.0626494 0.147141 0.00813399
-0.0620993 0.142059 0.00180195
-0.0623406 0.143006 0.00861487
-0.0614253 0.143573 0.000420292
-0.0615763 0.1446 -0.000512911
-0.0614805 0.146115 -0.00191949
-0.0601384 0.139389 -0.00384773
-0.0601401 0.139787 -0.00533993
-0.0598078 0.140736 -0.00657331
-0.0596346 0.141372 -0.0079158
-0.0482502 -0.10365 0.00392172
-0.0473927 -0.103591 0.00273253
-0.0464946 -0.103528 0.00160669
-0.0458273 -0.103519 -0.000245235
-0.0433596 0.150487 0.0155444
-0.0426034 0.15049 0.0166855
-0.0411624 0.150708 0.0185848
-0.0447195 -0.135929 0.0505879
-0.0475682 -0.135919 0.0493098
-0.0489928 -0.135843 0.0485763
-0.0495149 -0.135988 0.0479855
-0.0518632 -0.135495 0.0468961
-0.0533103 -0.135243 0.0459757
-0.0539635 -0.134993 0.0453901
-0.0562228 -0.134571 0.0439354
-0.0594083 -0.133825 0.0416812
-0.0591204 -0.13374 0.0416763
-0.0647818 -0.133134 0.0384305
-0.0314829 -0.135898 0.0530184
-0.0298992 -0.135979 0.0529044
-0.0282757 -0.136071 0.0526998
-0.0266221 -0.136166 0.0524356
-0.0256378 -0.135841 0.051948
-0.023258 -0.136379 0.0518172
-0.0215369 -0.136519 0.0514587
-0.0432913 -0.135891 0.0511533
-0.0461449 -0.135943 0.0499764
-0.0550722 -0.133025 0.0480195
-0.056458 -0.132689 0.0467602
-0.0576461 -0.131912 0.0458417
-0.0565955 -0.132437 0.0465468
-0.0558303 -0.133313 0.0477354
-0.0624163 -0.130196 0.0420056
-0.0613468 -0.130981 0.042549
-0.0626383 -0.129363 0.0410321
-0.061086 -0.132396 0.0382721
-0.0600998 -0.132549 0.0380966
-0.0717588 -0.132803 0.00567685
-0.07018 -0.135239 0.00409125
-0.0618957 -0.121894 0.0392472
-0.0585163 -0.125735 0.0424926
-0.0582243 -0.127097 0.0434755
-0.0593482 -0.127626 0.0428954
-0.0696512 -0.132581 -0.00017071
-0.0642281 -0.13306 0.0030459
-0.0655301 -0.133063 -0.000101962
-0.0663653 -0.132985 -0.000123971
-0.0699621 -0.131434 -0.00497464
-0.0714084 -0.131824 -0.00372991
-0.0712003 -0.132359 -0.0038793
-0.0708117 -0.133306 -0.00414632
-0.0714047 -0.131629 -0.00337296
-0.0685017 -0.132739 -0.000160506
-0.0696956 -0.134697 -0.00460135
-0.0702715 -0.12501 -0.0061421
-0.0704857 -0.124646 -0.00539748
-0.0602156 0.13807 -0.0169789
-0.0600341 0.134477 -0.013405
-0.0605555 0.135256 -0.00969214
-0.0528365 0.137216 -0.0207255
-0.0538825 0.136802 -0.0207817
-0.066355 -0.0469471 -0.000368718
-0.0715506 -0.0539766 -0.00285393
-0.0711567 -0.0548641 -0.00111608
-0.0653668 -0.0355234 -0.001541
-0.0128803 0.1445 0.0324209
-0.0116851 0.145385 0.0326888
0.14611 0.139245 -0.00838295
0.146542 0.139895 -0.00820413
0.147202 0.141171 -0.00792142
0.147476 0.141791 -0.00779641
0.147733 0.142403 -0.00767603
0.143946 0.137621 -0.00939334
0.14311 0.137185 -0.00982249
0.142233 0.136807 -0.010296
0.141321 0.13648 -0.0108089
0.143049 0.141678 -0.0146949
0.142169 0.14168 -0.0156692
0.140446 0.141624 -0.0172099
0.143253 -0.000363816 -0.0180805
0.141903 -0.000684188 -0.0187814
-0.0657812 -0.132094 0.0381963
-0.05223 -0.134697 0.0331141
-0.0541643 -0.133644 0.0353746
-0.0538585 -0.134099 0.0357216
-0.0548201 -0.13398 0.0369906
-0.0553976 -0.133616 0.0377956
-0.0565036 -0.133604 0.0392486
-0.0350013 -0.135671 0.0345738
-0.0337051 -0.135296 0.0346971
-0.0310199 -0.134377 0.0349492
-0.0296528 -0.133875 0.0350776
-0.0637722 -0.131924 0.03802
-0.0626321 -0.13243 0.038383
-0.0730831 0.0780564 0.00987644
-0.0337307 0.161314 0.0140833
-0.0346708 0.161048 0.0127185
-0.0322858 0.161955 0.0169962
-0.0356234 0.160787 0.0113694
-0.0365893 0.160532 0.0100354
-0.0375714 0.160284 0.00871845
-0.0385685 0.160044 0.00741594
-0.0395791 0.159812 0.00612451
-0.0406004 0.15959 0.00483908
-0.0376704 0.160073 0.0198864
-0.0389275 0.15951 0.0206343
-0.0314199 0.162243 0.0212733
-0.030974 0.162223 0.0226468
-0.0305416 0.162206 0.0240581
-0.0301253 0.162186 0.0255271
-0.029725 0.162155 0.0270631
-0.0515038 -0.127391 0.0443952
-0.0442736 -0.12849 0.0462554
-0.0426779 -0.128843 0.047693
-0.0498165 -0.127759 0.0454634
-0.0455011 -0.128667 0.0470713
-0.0258551 -0.132429 0.0525124
-0.0399003 -0.128869 0.0480986
-0.0368446 -0.130231 0.0483944
-0.048964 -0.128404 0.0464375
-0.0482308 -0.129361 0.0475576
-0.0474906 -0.129367 0.0473759
-0.0638837 -0.125418 -0.00516727
-0.0644595 -0.125564 0.0364804
-0.0647472 -0.125049 0.0336548
-0.0657343 -0.127586 0.0346808
-0.0650871 -0.129055 0.0378339
-0.0665184 -0.127527 0.0321009
-0.0654354 -0.127246 0.0354902
-0.0624567 -0.125784 0.0359364
-0.0620848 -0.126403 0.0279966
-0.0667049 -0.119351 0.0371108
-0.066556 -0.119443 0.0379064
-0.0673446 -0.118616 0.035531
-0.0677876 -0.11814 0.0342659
-0.0680563 -0.117432 0.0325199
-0.0650024 -0.110588 0.0377859
-0.0655902 -0.110488 0.0368315
-0.0645333 -0.110423 0.0425883
-0.0576537 -0.12607 0.0417751
-0.0578855 -0.126036 0.040601
-0.0582049 -0.125992 0.0390769
-0.0489927 0.134796 0.0237837
-0.0536228 0.135564 0.0239075
-0.0536702 0.135124 0.0228867
-0.0551011 0.133742 0.0176446
-0.0554404 0.133481 0.0163378
-0.0558165 0.13329 0.0149669
-0.0562309 0.133182 0.0135354
-0.0551394 0.132226 0.00839626
-0.0535985 0.136521 0.0259906
-0.0554724 0.13687 0.0233778
-0.0565153 0.137115 0.0219975
-0.0115217 0.152504 0.00905805
-0.0127904 0.152888 0.00866084
-0.0140839 0.153238 0.00827764
-0.0323906 0.137477 -0.00589148
-0.0350745 0.137544 -0.00668444
-0.0397642 0.138876 -0.00809165
-0.0409229 0.139308 -0.00835769
-0.0420624 0.139736 -0.00861075
-0.0431759 0.140142 -0.00885899
-0.0442606 0.140514 -0.00910707
-0.0451298 0.141026 -0.00904796
-0.0504046 0.141372 -0.0106505
-0.0257853 0.136911 0.0056373
-0.0239142 0.136533 0.00415079
-0.0185751 0.138372 0.015073
-0.0403541 -0.120379 0.0151766
-0.0409285 -0.121028 0.0144838
-0.0441858 -0.119536 0.0117297
-0.0447324 -0.118854 0.0105267
-0.0459103 -0.118035 0.0094715
-0.0468697 -0.117256 0.00837919
-0.0478765 -0.116495 0.00730695
-0.0489133 -0.11576 0.00624709
-0.0499679 -0.115048 0.00519489
-0.051745 -0.114512 0.00328485
-0.0636082 -0.114683 0.0023937
-0.0642133 -0.115211 0.00156395
-0.0642999 -0.117408 0.00237403
-0.0657149 -0.119354 0.00158348
-0.0668355 -0.115292 -0.00323247
-0.0636635 -0.117344 -0.00384212
-0.0523423 -0.103697 0.0188624
-0.0208432 0.13803 0.0242312
-0.0208868 0.138224 0.0260695
-0.0209323 0.138416 0.027902
-0.0215056 0.13846 0.0294654
-0.0641911 -0.123223 0.0267786
-0.0681139 -0.121828 0.0243866
-0.0699901 -0.122394 0.0235993
-0.0680231 -0.121583 0.0299072
-0.0687987 -0.120429 0.029446
-0.0665287 -0.120264 0.0322517
-0.0657532 -0.119724 0.0333604
-0.064514 -0.118427 0.035663
-0.0632728 -0.118615 0.0363268
-0.0633504 -0.118076 -0.00468351
-0.0700275 -0.117403 -0.00581787
-0.0703216 -0.117657 -0.00538991
-0.0636816 -0.114328 -0.00326522
-0.072375 0.131006 0.00638238
-0.0721853 0.130796 0.00748988
-0.0723221 0.130462 0.00556715
-0.0542647 0.151539 0.020226
-0.0591639 0.148393 0.0185948
-0.060605 0.147332 0.0183899
-0.032946 0.147283 0.0341265
-0.0626684 -0.117982 -0.00435689
-0.0528346 -0.114009 0.00128646
-0.0611675 -0.113849 -0.00267043
-0.059797 -0.113939 -0.00195372
-0.0578741 -0.113813 -0.00125665
-0.0554394 -0.113414 -6.02229e-05
-0.054386 -0.113958 3.97263e-05
-0.0609039 0.135454 -0.0156875
-0.0600812 0.138061 -0.0169079
-0.0585306 0.135137 -0.0121408
-0.0571971 0.135719 -0.0110182
-0.0557437 0.136351 -0.00978616
-0.0542044 0.136922 -0.00872436
-0.0537097 0.137185 -0.00892787
-0.0548582 0.136671 -0.00863688
-0.0567448 0.135418 -0.00826132
-0.0602806 0.13436 -0.0136185
-0.060267 0.136312 -0.00719516
-0.0697762 0.0632186 -0.00664038
-0.0660086 0.0633837 -0.00607073
-0.0682155 -0.109798 0.034723
-0.0690059 -0.109636 0.0338774
-0.0697856 -0.109479 0.0330121
-0.0705573 -0.109327 0.0321299
-0.0604684 -0.128171 0.0423068
-0.0345967 -0.131324 0.0503487
-0.0494238 -0.13014 0.0474497
-0.0268618 -0.13314 0.0421628
0.145905 0.12996 -0.0203268
0.144785 0.129497 -0.020971
-0.064994 -0.120558 0.0388213
-0.0642647 -0.125998 0.0372658
-0.0704038 -0.109179 0.00213163
-0.0705947 -0.108383 0.00290748
-0.0707981 -0.107636 0.00369751
-0.069913 -0.113353 -0.00200134
-0.0705788 -0.113917 -0.00347559
-0.0715869 -0.115305 -0.00559791
-0.0692537 0.00339159 0.0223984
-0.0697632 0.0039002 0.0205219
-0.0700924 0.00427724 0.019267
-0.0673352 0.00303917 0.02838
-0.0684018 0.00262818 0.0255598
-0.0707923 0.00451931 0.0218938
-0.0687468 0.00292456 0.024302
-0.0526708 0.129694 -0.00999593
-0.0530413 0.129581 -0.00981902
-0.0564311 0.129212 -0.00869281
-0.0545813 0.12985 -0.00868347
-0.0523905 0.131413 -0.00896087
-0.051167 0.130099 -0.00874874
-0.0523868 0.129601 -0.00933142
-0.0415941 0.130545 -0.00820617
-0.0418419 0.131292 -0.00997251
-0.0504344 0.131761 -0.0156733
-0.03702 0.130144 -0.00739954
-0.0391328 0.130079 -0.00755927
-0.0542796 0.129691 -0.00868648
-0.0601933 0.13188 -0.00859491
-0.0602347 0.133625 -0.00842109
-0.0603676 0.136743 -0.00476781
-0.047547 0.130509 -0.0148228
-0.0479071 0.131628 -0.015036
-0.0601402 -0.125462 0.0280473
-0.0544723 -0.127694 0.0299534
-0.0463519 -0.132908 0.0316198
-0.0451047 -0.139664 0.0112839
-0.0441441 -0.138847 0.0140529
-0.0437733 -0.138482 0.015371
-0.0434896 -0.138103 0.0166372
-0.0432434 -0.137699 0.0178784
-0.0456481 -0.140117 0.00985627
-0.0445816 -0.13845 0.0112761
-0.0427763 -0.136888 0.0106792
-0.0406149 -0.13592 0.0116948
-0.0377736 -0.134778 0.0136541
-0.0365872 -0.13396 0.0137234
-0.0347966 -0.13302 0.0146744
-0.0380623 0.144524 -0.0209366
-0.0317854 0.149422 -0.0122758
0.104819 -0.138859 -0.0134603
0.104071 -0.139541 -0.0131148
0.102581 -0.140898 -0.0124112
0.101836 -0.141563 -0.0120503
0.101091 -0.142219 -0.0116844
0.100344 -0.142868 -0.0113152
-0.0446399 0.147654 -0.0116365
-0.0550982 0.146075 -0.0152738
0.068639 0.13629 -0.0324393
0.0696903 0.136993 -0.0326306
-0.0667573 0.132518 0.0175872
-0.0653513 0.133858 0.0191603
0.115687 0.134223 -0.0251513
0.113712 0.133076 -0.0249231
0.127061 -0.141593 -0.00436434
0.127163 -0.142606 -0.00406705
0.0720966 0.135157 -0.0124073
0.0821264 0.140458 -0.0369519
0.0808638 0.140268 -0.037721
0.0795078 0.139986 -0.0388064
-0.034894 -0.12468 -0.00284579
-0.0647263 -0.132 0.034013
-0.0638747 -0.131256 0.036631
0.11311 0.142535 -0.021413
0.114329 0.142568 -0.0209334
0.120526 0.14268 -0.0186916
0.12177 0.142695 -0.0182517
0.123012 0.142711 -0.0178095
0.104883 0.142154 -0.0252567
0.103721 0.14209 -0.0258513
0.112086 0.142516 -0.0214325
0.112319 0.142183 -0.0237305
0.112556 0.141861 -0.0260345
-0.0211424 0.138793 -0.00933312
-0.0205662 0.139274 -0.0103071
-0.0200038 0.139763 -0.0112638
-0.0461977 0.143339 0.0322063
-0.0459581 0.143592 0.0285803
-0.0498829 0.138814 0.0310058
-0.0532234 0.138729 0.0280024
-0.0535205 0.138461 0.0276235
-0.0546721 0.13609 0.0249288
-0.0545785 0.135995 0.0248468
-0.051248 0.136588 0.0267651
0.0886593 -0.142619 -0.0117925
0.0874089 -0.142487 -0.0126515
0.0859312 -0.142448 -0.013088
-0.0659302 -0.0906694 0.00153614
-0.0608499 -0.0894135 0.00252769
-0.0656311 -0.0982944 -0.00166141
-0.0662644 -0.0994093 -0.00232473
-0.0468845 -0.127731 -0.00545908
-0.0512007 -0.129203 -0.00619107
-0.0413751 0.154755 -0.0102536
-0.0413029 0.152927 -0.0100204
-0.0412308 0.151107 -0.00976954
-0.0387805 0.157052 -0.0102687
-0.0334464 0.155975 -0.0140976
-0.0322682 0.155765 -0.0147935
-0.0612745 0.0648071 -0.00477362
-0.0610275 0.0664641 -0.00477817
-0.066808 -0.127057 0.0314621
-0.0669745 -0.126237 0.0315748
-0.0647639 -0.12667 0.0313812
-0.0632072 -0.125697 0.0264922
-0.0669326 -0.126674 0.0315605
-0.066164 -0.127794 0.0306752
-0.0597897 -0.117876 0.013963
-0.058423 -0.118202 0.013469
-0.0629217 -0.119931 0.0277174
-0.0633146 -0.118986 0.0268505
-0.0692987 -0.11283 1.3932e-05
-0.0687827 0.126562 0.0130046
-0.0701458 0.127517 0.0101894
-0.0720858 0.128131 0.00737689
-0.0721686 0.129298 0.00752555
-0.0685066 0.131658 0.0134614
-0.0685852 0.131007 0.0119384
-0.0689579 0.129057 0.00696223
-0.0681167 0.132536 0.015346
-0.068312 0.131033 0.0130864
-0.0687234 0.13026 0.0100431
0.091035 -0.133834 -0.0107675
-0.0162649 0.141934 0.0324608
-0.0176157 0.141239 0.0311611
-0.0697267 0.141061 -0.00238361
-0.0699919 0.141437 -0.0014289
-0.0681402 0.141736 -0.00805385
-0.0702704 0.140677 -0.00227027
-0.068962 0.141086 -0.00376411
-0.0689056 0.14038 -0.00598785
-0.0686371 0.140622 -0.00754288
-0.0680086 0.139972 -0.00844975
-0.0656687 0.106348 0.0225172
-0.0642176 0.107169 0.0227896
-0.0635218 0.107593 0.0229291
-0.0700122 0.126555 -0.0116663
-0.0354978 0.139625 -0.0185709
-0.0390863 0.140261 -0.0198772
-0.0361129 0.13863 -0.0180951
-0.0332514 0.139187 -0.0175851
-0.0318116 0.139399 -0.0172967
-0.0725299 0.0111567 0.0188095
-0.0175935 0.142828 -0.015695
0.124804 0.135452 -0.0187048
0.127707 0.136817 -0.0143981
0.12827 0.137229 -0.0134301
0.125882 0.135505 -0.0151123
0.126166 0.135458 -0.0173398
0.12573 0.134977 -0.0181499
0.125398 0.134343 -0.0193555
0.125075 0.133737 -0.0203728
0.124805 0.133085 -0.0213937
0.124583 0.132391 -0.022414
0.136854 0.100203 -0.0289476
0.137254 0.0994583 -0.0275932
-0.0695727 -0.0710897 0.0175572
-0.0685716 -0.0713006 0.0172102
-0.0675741 -0.0715083 0.01685
-0.0572183 0.11843 0.00145785
-0.0562862 0.117802 0.00279164
-0.0582401 -0.1123 0.0403591
-0.0602286 -0.113102 0.0390738
-0.0588303 -0.114009 0.0382453
-0.0563871 -0.115604 0.0382584
-0.0576125 -0.1148 0.038264
0.132791 0.127675 -0.0216278
0.13251 0.125893 -0.0210628
-0.0699249 0.0906153 -0.00662662
-0.0685307 0.0907864 -0.00601701
-0.0647293 0.0915744 -0.00465189
-0.0614008 0.0916519 -0.0029638
0.14321 -0.0359666 -0.0196033
-0.0606824 0.090268 -0.00559103
-0.0616796 0.0887152 -0.00555113
-0.0359387 -0.0895317 -0.00560174
-0.0359091 -0.0914751 -0.00552431
-0.0357611 -0.101302 -0.00515215
-0.0361321 -0.103106 -0.00573297
-0.0324719 0.107587 0.0291536
-0.0349884 0.108551 0.0270332
-0.0363381 0.108841 0.0262789
-0.0551269 -0.122208 -0.00362579
-0.0565413 -0.11928 -0.00302287
-0.0534241 -0.119781 -0.00301197
-0.0615783 -0.118286 -0.00394817
-0.0479541 -0.127091 -0.000845774
-0.045257 -0.127343 -0.000289706
-0.051457 -0.127014 -0.000864763
-0.046242 -0.12821 0.00145467
-0.0713307 -0.1253 -0.00678572
-0.06317 -0.119923 -0.00501784
-0.0530993 -0.114856 0.00506408
